ncols	157
nrows	115
xllcorner	319975
yllcorner	4159425
cellsize	50.000000
NODATA_value	-9999.000000
6.95	7.59	7.89	8.00	8.43	8.51	8.96	9.30	9.49	9.82	10.46	11.53	11.71	11.36	10.42	10.29	10.12	10.00	10.11	10.18	10.14	9.77	9.46	8.99	8.28	7.97	7.95	7.74	7.82	8.67	10.24	12.04	13.15	12.85	11.99	11.33	10.99	10.60	10.41	10.55	10.21	9.90	10.23	10.74	11.77	12.63	11.88	10.37	9.04	8.52	9.21	9.80	9.78	9.48	9.02	8.63	8.73	9.60	10.28	10.43	10.78	11.32	11.70	11.88	12.08	12.68	13.36	13.59	13.77	14.02	13.72	13.20	13.40	13.88	13.79	13.43	13.01	12.40	12.74	12.87	12.20	12.66	14.39	16.51	15.25	10.56	8.12	6.98	5.70	6.24	6.03	6.00	5.84	6.04	6.16	6.33	6.59	6.99	7.17	6.87	6.74	6.61	7.08	7.45	7.46	8.24	8.84	9.48	10.07	10.49	10.75	10.83	10.82	10.65	9.66	9.60	9.83	11.70	11.46	11.37	10.27	9.53	9.78	10.35	10.76	11.55	12.35	12.37	11.90	11.50	11.20	11.05	11.55	11.83	10.07	7.83	7.55	7.67	7.03	6.88	7.08	6.82	6.67	7.19	7.83	8.52	9.88	10.99	10.79	10.58	11.27	11.41	10.97	10.66	9.49	8.56	8.56
7.26	7.87	8.08	8.03	8.26	8.25	8.79	9.12	9.23	9.58	10.13	11.07	11.10	11.31	11.24	11.15	10.72	10.44	10.35	10.38	10.18	9.86	9.67	9.27	8.75	8.51	8.48	8.26	8.22	8.50	9.36	10.78	11.92	12.16	11.69	11.04	10.86	10.81	10.88	11.12	10.86	10.58	10.73	10.98	12.01	12.65	11.20	9.40	8.27	7.99	8.76	9.42	9.57	9.44	9.17	8.83	8.86	9.63	10.26	10.42	10.86	11.49	11.92	12.31	12.71	13.38	13.75	13.36	13.32	13.70	13.41	13.00	13.35	13.97	14.11	13.84	13.35	12.71	13.01	13.80	13.15	12.32	13.75	16.38	15.93	11.16	7.96	6.84	6.56	6.69	6.33	5.93	5.75	5.77	5.94	6.20	6.47	6.66	6.58	6.50	6.10	5.97	6.43	6.90	7.32	7.68	8.60	9.38	9.70	10.10	10.61	10.73	10.65	10.09	9.63	9.99	10.76	11.47	11.19	10.54	10.16	9.29	9.03	9.70	10.70	11.72	12.38	12.36	11.62	11.60	11.51	11.57	12.02	12.08	10.18	7.98	7.61	7.83	6.71	6.62	7.14	6.45	5.68	6.18	7.29	8.06	9.12	10.55	10.95	10.45	10.70	11.13	11.18	10.98	9.66	8.61	8.61
7.53	8.08	8.30	8.27	8.26	8.07	8.65	9.02	9.05	9.42	9.93	10.64	10.71	11.09	11.25	11.26	10.90	10.38	10.21	10.35	10.23	10.01	9.75	9.34	9.07	8.95	8.87	8.65	8.63	8.88	9.24	10.05	10.68	11.16	11.15	10.68	10.66	10.83	10.98	11.29	11.28	11.07	11.17	11.34	12.26	12.66	10.80	8.61	7.32	7.23	8.08	8.81	9.11	9.10	9.02	8.89	9.00	9.54	10.11	10.35	10.84	11.50	11.95	12.60	13.42	14.09	14.09	13.39	12.54	13.14	13.04	12.97	13.20	13.86	14.48	14.47	13.97	13.44	13.69	14.51	13.84	12.45	13.20	14.93	16.39	12.75	8.29	6.72	6.85	6.79	6.27	6.08	5.95	5.87	5.84	5.95	6.30	6.27	6.27	6.10	5.85	5.80	6.06	6.53	7.13	7.36	8.07	9.15	9.41	9.54	10.09	10.73	10.67	9.93	9.69	10.34	11.15	11.40	10.96	10.69	10.01	9.28	8.52	9.16	10.81	12.07	12.26	11.78	11.72	11.96	12.06	11.97	12.27	12.31	10.54	8.40	7.83	7.68	6.99	7.01	7.38	6.24	6.18	5.09	6.30	7.46	8.52	9.99	11.05	10.38	10.04	10.59	11.09	11.13	9.95	8.97	8.97
7.78	8.22	8.49	8.56	8.47	8.14	8.60	9.03	9.05	9.33	9.81	10.11	10.37	10.82	11.10	11.23	10.97	10.30	9.85	9.88	9.92	9.91	9.74	9.32	9.12	9.15	9.22	8.99	9.21	9.24	9.40	9.79	10.03	10.36	10.57	10.45	10.58	10.81	10.95	11.29	11.50	11.33	11.44	11.67	12.55	12.81	10.72	8.21	6.68	6.56	7.38	8.09	8.44	8.54	8.63	8.75	9.05	9.41	9.75	10.07	10.67	11.24	11.68	12.65	13.89	14.71	14.60	13.84	13.19	12.49	12.36	12.95	13.25	13.72	14.58	14.93	14.90	14.89	15.00	15.16	14.38	13.37	12.66	12.20	15.60	15.18	8.67	6.57	7.87	6.82	6.47	6.33	6.22	5.97	5.68	5.74	6.35	6.24	6.39	6.13	5.93	5.98	5.93	6.21	6.98	7.26	7.77	8.49	9.10	9.26	9.55	10.66	10.83	9.94	9.81	10.57	11.40	11.62	10.90	9.91	9.53	9.40	8.52	8.96	10.84	12.13	11.97	11.16	11.24	12.20	12.71	12.41	12.44	12.59	11.04	8.96	8.27	7.98	7.55	7.80	7.72	6.01	5.71	5.28	5.41	6.61	7.91	9.64	10.74	10.34	9.48	9.82	10.60	10.87	10.52	9.82	9.82
7.91	8.29	8.61	8.76	8.72	8.36	8.63	9.12	9.17	9.27	9.67	9.93	10.12	10.51	10.89	11.12	10.98	10.28	9.68	9.54	9.44	9.49	9.42	9.27	9.10	9.26	9.49	9.49	9.45	9.46	9.53	9.73	9.83	9.88	10.06	10.27	10.52	10.75	10.89	11.24	11.58	11.49	11.64	11.94	12.78	13.06	10.99	8.20	6.38	6.16	6.87	7.51	7.80	7.96	8.16	8.47	8.93	9.25	9.41	9.69	10.38	10.92	11.39	12.49	13.94	15.12	15.41	14.80	13.72	12.09	11.34	12.38	13.40	14.00	14.75	15.09	15.59	16.57	16.87	16.17	14.08	12.99	11.93	10.66	14.12	15.84	10.04	8.05	7.93	7.05	6.60	6.39	6.46	6.06	5.49	5.58	6.25	6.50	6.71	6.64	6.52	6.33	5.98	6.00	6.82	7.67	7.93	7.90	8.44	8.82	9.11	10.47	10.91	10.16	10.06	10.91	11.84	12.02	10.89	9.36	9.34	9.62	8.92	9.17	10.78	11.58	10.66	10.18	10.77	11.87	12.98	12.93	12.77	12.87	11.55	9.80	8.91	8.25	8.20	8.56	7.88	5.72	5.74	5.18	4.90	5.85	7.32	9.02	10.16	10.05	9.22	9.29	9.87	10.09	10.39	10.03	10.03
7.92	8.30	8.65	8.85	8.88	8.53	8.70	9.20	9.31	9.27	9.57	9.79	9.95	10.38	10.79	11.01	10.98	10.32	9.61	9.35	8.94	8.77	8.79	8.92	8.95	9.20	9.58	9.66	9.58	9.49	9.48	9.65	9.67	9.60	9.75	10.07	10.38	10.64	10.82	11.14	11.51	11.57	11.77	12.11	12.85	13.33	11.54	8.49	6.32	5.95	6.58	6.86	7.07	7.23	7.53	8.08	8.69	9.03	9.12	9.32	9.97	10.68	11.34	12.32	13.56	15.03	16.31	16.40	15.01	12.59	10.85	11.32	12.85	14.15	15.00	15.27	15.96	17.68	18.86	17.60	13.74	11.83	11.34	10.16	12.46	16.90	13.10	9.22	8.31	7.51	7.18	6.73	6.55	6.03	5.58	5.88	6.33	6.68	6.93	7.09	6.99	6.57	6.20	6.05	6.94	7.99	7.27	7.53	7.78	8.33	8.79	9.96	10.63	10.35	10.49	11.44	12.35	12.43	10.59	8.66	9.26	9.77	9.37	9.82	10.78	10.21	10.27	10.47	10.56	11.19	12.44	12.71	12.86	12.80	12.02	11.05	9.89	8.69	9.08	9.30	7.74	5.43	5.36	4.59	4.72	5.28	7.20	8.71	9.49	9.46	9.14	9.21	9.23	9.45	9.87	9.84	9.84
7.92	8.32	8.66	8.90	9.01	8.71	8.82	9.25	9.41	9.37	9.55	9.71	9.85	10.30	10.73	10.90	11.01	10.55	9.36	8.91	8.50	8.15	8.11	8.29	8.62	9.12	9.54	9.66	9.62	9.43	9.37	9.51	9.44	9.37	9.59	9.90	10.20	10.49	10.72	11.03	11.38	11.58	11.88	12.21	12.75	13.44	12.24	9.13	6.62	6.00	6.44	6.44	6.22	6.36	6.74	7.56	8.39	8.73	8.72	8.84	9.28	10.10	11.17	12.11	12.84	14.18	16.50	17.83	17.37	14.95	12.22	11.16	12.09	13.70	14.92	15.56	16.40	18.39	20.35	18.39	13.06	11.00	11.05	10.43	13.30	15.65	13.16	11.20	9.58	8.32	7.90	7.50	6.93	6.29	6.00	6.12	6.47	6.68	7.26	7.63	7.48	6.92	6.52	6.38	7.26	8.23	7.10	6.99	7.28	7.72	8.54	9.61	10.21	10.27	10.93	12.10	12.96	12.88	10.32	8.80	8.95	9.52	9.63	10.58	10.52	9.50	9.22	10.35	10.65	10.83	11.60	12.57	13.17	12.84	12.25	12.32	11.11	9.59	10.06	9.80	7.52	6.48	4.66	4.81	4.70	4.99	6.44	8.31	8.56	8.66	8.98	9.12	9.39	8.99	9.92	10.24	10.24
7.98	8.37	8.69	8.92	9.13	8.89	8.91	9.21	9.41	9.44	9.56	9.68	9.81	10.26	10.66	10.77	11.01	10.98	10.53	9.50	8.03	7.34	7.35	7.63	8.28	9.00	9.42	9.61	9.59	9.38	9.30	9.35	9.22	9.18	9.40	9.71	10.06	10.33	10.59	10.89	11.22	11.51	11.91	12.25	12.58	13.41	12.95	10.16	7.39	6.42	6.57	6.34	5.81	5.67	6.06	7.01	8.09	8.43	8.21	8.18	8.42	9.15	10.56	11.56	11.78	12.59	15.14	17.61	18.69	18.04	15.94	13.23	12.34	13.32	14.35	15.45	16.93	19.34	21.18	18.12	12.34	11.10	10.99	10.88	13.12	14.42	12.78	11.56	10.67	9.82	8.62	8.28	7.70	6.90	6.51	6.54	6.76	7.07	7.64	7.87	7.48	7.01	6.86	6.63	7.48	8.42	8.46	8.60	8.90	6.82	8.01	9.38	9.93	10.07	11.31	12.86	13.89	13.52	10.21	7.85	8.37	8.79	9.55	10.59	10.02	8.50	9.41	10.37	10.72	10.48	10.78	11.87	12.78	12.83	12.70	13.10	12.28	10.87	10.92	9.98	7.56	6.95	5.41	5.18	4.79	5.54	6.51	7.42	7.23	7.87	8.37	9.14	9.16	8.59	9.89	10.63	10.63
8.10	8.49	8.75	8.96	9.24	9.03	8.98	9.16	9.30	9.40	9.52	9.64	9.79	10.20	10.52	10.57	10.85	11.14	11.41	10.50	8.05	6.60	6.52	7.01	8.02	8.81	9.24	9.51	9.50	9.34	9.27	9.19	9.04	9.00	9.20	9.55	9.91	10.16	10.42	10.70	11.02	11.35	11.80	12.17	12.36	13.14	13.46	11.71	9.07	7.53	7.09	6.46	5.79	5.64	5.64	6.58	7.88	8.19	7.72	7.46	7.62	8.35	9.86	10.82	10.66	10.92	12.28	15.33	17.80	19.25	19.26	17.22	14.58	13.80	13.80	14.49	16.83	20.39	21.41	17.06	11.99	12.22	12.13	11.11	12.81	13.15	12.13	11.32	11.04	10.58	9.05	8.55	8.27	7.47	7.02	6.97	7.19	7.30	7.66	7.54	7.05	7.07	7.09	6.72	7.47	8.51	8.53	8.46	8.21	7.91	7.87	8.94	9.60	9.79	11.39	13.42	15.01	14.38	10.40	7.91	8.72	8.03	9.06	10.29	10.82	7.93	9.22	10.28	10.37	10.28	10.35	11.10	11.85	12.52	13.05	13.75	13.23	12.10	11.46	9.94	7.83	6.68	6.19	5.62	5.16	5.18	5.90	6.10	5.65	6.45	7.79	8.48	8.74	8.68	9.31	10.04	10.04
8.24	8.62	8.88	9.09	9.38	9.18	9.11	9.15	9.17	9.29	9.44	9.56	9.72	10.10	10.29	10.28	10.54	10.86	11.63	11.46	8.96	6.53	6.04	6.62	7.80	8.54	8.99	9.37	9.40	9.09	9.29	9.08	8.92	8.84	9.03	9.42	9.78	10.05	10.25	10.51	10.84	11.17	11.59	11.95	12.07	12.59	13.28	12.88	11.33	9.66	8.44	7.09	6.20	6.07	5.78	6.44	7.86	8.02	7.26	6.81	6.95	7.89	9.48	10.15	9.75	9.69	10.37	12.25	14.89	17.03	19.63	20.23	18.77	16.73	15.16	14.60	17.05	21.17	21.19	15.82	12.12	13.04	13.39	12.29	12.94	12.27	11.95	11.23	11.11	10.74	9.45	8.62	8.52	8.11	7.67	7.52	7.58	7.61	7.53	7.13	6.70	7.12	6.95	6.56	6.95	8.22	8.92	8.92	8.26	7.54	7.08	8.17	9.14	9.58	11.27	13.75	16.10	15.25	10.91	8.09	8.29	8.04	9.13	11.00	10.49	7.72	8.65	9.81	10.13	10.11	10.07	10.33	10.90	11.41	12.91	14.10	14.20	13.34	11.71	9.73	8.15	7.28	6.64	6.15	5.89	6.37	5.49	5.33	7.57	5.81	7.06	7.85	8.17	8.41	9.02	9.58	9.58
8.27	8.67	9.01	9.26	9.50	9.34	9.23	9.15	9.08	9.19	9.34	9.45	9.61	9.99	10.07	9.95	10.15	10.45	11.42	11.83	9.73	7.16	6.25	6.61	7.66	8.24	8.65	9.08	9.23	9.07	9.35	9.07	8.85	8.69	8.87	9.29	9.67	9.97	10.11	10.32	10.67	10.99	11.35	11.66	11.71	11.99	12.50	12.75	12.42	11.60	10.44	8.80	7.57	7.10	6.46	6.80	8.03	7.85	6.80	6.35	6.47	7.54	9.19	9.57	9.03	8.76	9.07	10.66	12.10	13.65	16.09	19.52	21.05	20.96	19.71	18.37	19.25	21.87	21.09	15.51	12.81	14.17	14.82	13.49	11.92	11.75	11.59	11.20	10.96	10.39	9.50	8.66	8.76	8.73	8.31	8.02	7.77	7.66	7.48	6.71	6.59	7.09	6.78	6.25	6.12	7.52	8.65	9.49	8.75	7.71	6.81	7.36	8.25	9.34	11.00	13.73	16.87	15.98	11.43	8.33	8.09	8.01	8.74	9.92	9.62	8.76	9.21	10.06	9.85	10.20	9.88	9.70	10.07	10.39	12.16	14.00	14.97	14.33	11.87	9.67	8.54	7.64	6.79	6.52	6.54	5.95	6.55	7.17	6.89	7.34	9.22	8.26	7.39	7.87	8.66	9.04	9.04
8.23	8.67	9.10	9.31	9.55	9.52	9.37	9.14	9.03	9.12	9.26	9.35	9.49	9.89	9.96	9.71	9.76	9.97	11.05	11.63	10.03	7.82	6.80	6.88	7.37	7.71	8.03	8.71	8.93	9.26	9.11	9.17	8.95	8.66	8.76	9.20	9.58	9.88	9.99	10.14	10.48	10.79	11.06	11.28	11.30	11.42	11.75	11.93	11.99	11.96	11.60	10.68	9.63	8.78	7.93	7.96	8.59	7.93	6.70	6.22	6.28	7.26	8.80	9.04	8.47	7.96	7.83	9.15	10.61	10.91	12.37	14.80	18.18	20.79	22.12	22.17	22.22	23.25	22.02	16.88	14.55	15.42	15.90	14.34	12.05	11.54	11.48	10.88	10.78	10.13	9.27	8.70	8.92	9.04	8.86	8.33	8.01	7.81	7.51	6.78	6.57	6.81	6.57	6.18	5.43	7.05	8.07	9.70	9.16	8.09	6.16	6.85	7.35	8.75	10.53	13.50	17.25	16.49	11.91	8.64	7.11	7.91	8.63	9.12	8.90	8.69	9.18	9.49	9.41	10.37	9.81	9.20	9.71	9.93	11.10	13.38	15.25	14.76	12.15	9.97	8.96	7.90	6.88	7.42	7.77	7.26	7.56	6.52	6.34	6.87	7.82	8.41	8.66	9.17	7.89	8.33	8.33
8.18	8.75	9.30	9.35	9.54	9.69	9.61	9.28	9.04	9.10	9.23	9.29	9.40	9.78	9.95	9.70	9.55	9.58	10.64	11.39	9.92	8.19	7.26	7.13	7.38	7.89	7.85	8.42	8.57	8.98	9.20	9.18	9.06	8.73	8.77	9.18	9.49	9.78	9.88	9.98	10.32	10.61	10.76	10.87	10.88	10.93	11.17	11.26	11.30	11.33	11.26	11.13	10.72	10.06	9.49	9.36	9.37	8.36	7.06	6.40	6.30	7.27	8.59	8.62	8.07	7.47	7.02	7.81	9.27	9.48	9.52	11.29	12.98	15.03	18.44	22.30	24.19	24.97	23.93	19.66	17.16	17.28	17.23	14.94	12.41	11.73	10.58	10.76	10.68	10.11	9.15	8.77	9.06	9.26	9.09	8.74	8.26	7.98	7.74	7.00	6.73	6.68	6.26	6.19	5.81	6.38	7.66	9.21	9.03	7.52	6.77	6.96	7.17	8.48	10.04	13.42	17.32	16.80	12.17	8.72	8.18	8.25	8.42	8.54	8.43	8.64	9.08	8.98	8.87	10.37	9.87	9.05	9.76	9.89	10.54	12.71	15.04	14.82	12.51	10.45	9.37	8.22	7.04	6.61	8.37	5.57	5.06	5.03	4.86	7.01	7.64	9.01	8.73	7.02	7.19	7.38	7.38
8.04	8.78	9.42	9.44	9.59	9.72	9.79	9.50	9.10	9.06	9.19	9.23	9.30	9.66	9.91	9.80	9.50	9.34	10.37	10.96	9.69	8.34	7.58	7.37	7.68	7.67	8.03	8.19	8.22	8.57	8.81	8.94	8.97	8.76	8.84	9.17	9.43	9.67	9.78	9.87	10.20	10.46	10.48	10.47	10.47	10.51	10.69	10.76	10.81	10.77	10.54	10.65	10.26	10.42	9.83	9.86	9.94	8.91	7.62	6.63	6.36	7.40	8.54	8.38	7.84	7.18	6.92	7.42	8.40	8.44	8.02	8.66	10.68	11.92	14.02	18.87	22.83	25.17	24.59	22.52	20.37	20.01	19.23	15.88	12.75	11.34	10.62	10.00	10.57	10.24	9.54	9.28	9.28	9.29	9.29	9.13	8.76	8.25	7.81	7.03	6.78	6.67	6.53	6.02	6.20	6.80	7.58	8.40	7.66	6.64	7.26	7.33	7.58	8.41	9.85	13.39	17.22	16.80	12.12	8.48	8.24	8.19	8.27	8.32	8.32	8.75	9.00	8.71	8.55	10.09	9.95	9.33	10.05	10.34	10.72	12.36	14.56	14.65	12.67	10.83	9.80	8.60	7.20	6.38	5.75	5.13	5.06	5.12	5.00	6.95	8.36	6.31	6.83	7.01	6.72	6.64	6.64
7.91	8.72	9.30	9.40	9.67	9.65	9.83	9.66	9.16	8.99	9.08	9.10	9.15	9.54	9.87	9.84	9.43	9.16	10.20	10.68	9.42	8.28	7.70	7.54	7.67	7.44	7.82	7.97	7.87	8.13	8.37	8.49	8.62	8.68	8.87	9.14	9.36	9.55	9.66	9.77	10.09	10.32	10.25	10.14	10.13	10.16	9.70	10.25	10.36	10.35	10.13	10.26	10.55	10.50	10.44	10.29	10.44	9.58	8.55	7.33	6.80	7.66	8.47	8.23	7.71	7.15	7.18	7.51	8.13	8.05	7.40	7.49	9.37	10.37	12.32	16.17	20.30	23.11	23.88	22.74	22.03	22.55	21.91	17.67	13.50	11.86	11.29	10.56	10.24	9.70	9.85	9.73	9.62	9.51	9.53	9.56	9.24	8.55	7.68	6.87	6.68	6.84	6.76	6.73	6.83	7.09	7.50	7.44	6.60	7.08	7.72	7.62	7.91	8.51	9.93	13.51	17.03	16.49	11.92	8.26	8.39	8.47	8.25	8.05	8.37	8.92	8.24	8.11	8.77	9.74	9.95	9.87	10.31	10.66	11.15	12.30	14.19	14.40	12.60	10.90	10.07	9.00	7.25	5.91	5.25	4.90	4.89	5.74	6.03	7.20	6.09	6.32	6.88	7.14	6.57	6.23	6.23
7.92	8.71	9.19	9.32	9.68	9.59	9.76	9.72	9.20	8.90	8.87	8.81	8.86	9.38	9.86	9.74	9.30	9.09	9.99	10.46	9.29	8.19	7.68	7.49	7.27	6.92	7.22	7.46	7.52	7.69	7.95	8.04	8.18	8.51	8.81	9.03	8.73	9.42	9.54	9.70	9.98	10.17	10.10	9.95	9.89	9.89	9.85	9.72	9.76	9.76	9.64	9.83	10.27	10.51	10.54	10.44	10.80	10.30	9.65	8.63	7.95	8.18	8.75	8.27	7.64	7.10	7.15	7.58	8.05	7.97	7.43	7.35	8.91	9.81	11.23	14.15	18.09	21.16	22.04	21.66	21.72	23.65	24.47	20.40	14.85	12.56	11.70	11.26	10.69	9.92	8.93	9.68	9.89	9.83	9.92	9.96	9.71	8.53	7.99	6.66	6.44	6.80	6.69	7.30	7.91	7.78	7.60	6.22	6.73	7.72	8.38	7.90	7.84	8.47	10.35	13.63	16.69	16.04	11.68	8.30	8.62	7.63	8.40	7.09	7.49	8.11	8.27	8.51	9.33	9.80	9.86	10.21	10.52	10.92	11.53	12.43	14.05	14.22	12.42	10.71	9.91	8.94	6.98	5.61	5.22	5.82	5.87	5.74	6.77	5.55	5.99	6.34	6.92	7.26	6.65	6.21	6.21
7.93	8.70	9.29	9.46	9.71	9.57	9.73	9.75	9.28	8.84	8.62	8.36	8.27	8.97	9.63	9.43	9.15	9.21	9.83	10.16	9.19	8.25	7.56	7.31	7.46	6.84	7.36	7.43	7.14	7.24	7.51	7.65	7.88	8.34	8.69	8.88	9.09	9.28	9.42	9.60	9.83	9.96	9.94	9.83	9.77	9.73	9.61	8.86	9.12	9.08	9.06	9.31	9.89	10.36	10.39	10.22	10.60	10.40	10.07	9.42	8.55	8.67	9.01	8.45	7.66	6.99	7.14	7.60	7.96	7.83	7.51	7.54	9.03	10.11	11.16	13.16	16.43	19.69	20.83	20.55	20.57	22.90	25.46	23.61	17.58	13.85	12.77	12.70	11.93	9.84	8.95	8.77	9.74	10.00	10.10	9.70	9.96	9.53	7.91	6.62	5.87	6.23	6.28	7.25	8.13	8.23	7.65	5.98	6.98	8.53	9.01	8.02	7.47	8.23	10.60	13.60	16.08	15.71	12.05	8.90	7.82	7.77	8.42	7.37	7.61	7.91	8.02	8.52	9.83	10.49	10.15	10.24	10.66	11.25	11.88	12.71	14.04	14.02	12.30	10.53	9.24	7.95	6.47	5.77	5.44	6.13	6.37	6.65	5.31	5.70	6.00	6.42	6.85	7.14	6.66	6.28	6.28
7.86	8.55	9.36	9.80	9.91	9.63	9.72	9.79	9.48	8.96	8.51	8.00	7.61	8.34	9.08	8.90	8.94	9.31	9.81	9.58	9.08	8.20	7.48	7.27	7.01	6.99	7.17	7.14	6.77	6.77	7.01	7.28	7.68	8.14	8.49	8.72	8.88	9.10	9.33	9.50	9.64	9.74	9.76	9.66	9.61	9.65	9.56	8.76	8.62	8.46	8.53	8.75	9.41	10.09	10.20	10.19	9.68	10.04	9.85	9.05	8.74	9.02	8.98	8.49	7.71	6.84	7.15	7.57	7.82	7.60	7.40	7.54	8.60	10.43	11.91	13.57	15.76	18.59	20.13	19.97	19.57	21.06	25.15	25.74	22.04	17.19	14.91	14.40	13.15	10.61	9.49	9.12	9.90	9.86	10.02	9.71	10.45	9.83	8.71	6.44	5.22	5.87	6.04	6.83	7.74	7.86	7.26	5.88	7.21	9.23	9.53	8.21	7.27	8.11	10.64	13.34	14.88	15.48	13.51	10.30	8.47	8.03	7.84	7.83	8.01	7.97	7.79	8.08	9.68	11.15	11.07	10.38	10.77	11.57	12.27	13.24	13.94	13.70	12.19	10.11	8.06	6.62	6.00	6.51	6.34	6.49	6.72	7.70	5.90	6.11	6.27	6.65	6.89	6.95	6.59	6.32	6.32
8.09	8.39	9.16	10.03	10.25	9.83	9.68	9.86	9.75	9.24	8.57	7.78	7.15	7.65	8.34	8.29	8.60	9.16	9.78	10.09	9.37	8.24	7.52	7.25	6.83	6.47	6.57	6.71	6.31	6.22	6.39	6.85	7.45	7.90	8.24	8.50	8.66	8.93	9.28	9.45	9.44	9.52	9.60	9.42	9.27	9.44	9.47	8.92	8.23	7.96	8.03	8.24	8.85	9.65	9.98	9.97	9.39	9.76	9.68	9.37	8.81	9.07	8.92	8.44	7.75	7.15	7.12	7.52	7.66	7.32	7.03	7.16	8.07	9.96	11.95	13.67	15.26	17.57	19.67	19.85	19.17	19.68	22.71	25.65	25.16	22.00	18.48	16.46	14.48	11.71	9.97	9.40	9.66	9.61	9.54	9.54	10.62	10.61	9.17	6.87	5.55	5.84	6.25	6.82	7.27	7.48	5.93	6.01	7.51	9.53	9.70	8.47	7.53	8.39	10.51	12.38	13.16	14.78	14.90	12.62	9.81	8.59	8.27	8.43	8.57	8.37	8.06	7.91	9.03	11.16	11.87	10.81	11.04	12.15	12.91	13.53	13.59	13.19	11.65	9.15	7.17	6.97	7.15	6.83	6.61	6.95	7.17	8.97	6.14	6.28	6.28	6.68	6.89	6.71	6.58	6.44	6.44
8.80	8.60	8.89	9.99	10.57	10.01	9.60	9.98	10.01	9.51	8.79	7.76	6.86	6.95	7.50	7.63	8.09	8.78	9.72	10.24	9.08	8.19	7.77	7.33	6.77	6.51	6.47	6.15	5.70	5.57	5.73	6.33	7.08	7.54	7.93	8.24	8.43	8.75	9.23	9.42	9.28	9.33	9.49	9.22	8.88	9.09	9.13	8.52	7.90	7.58	7.60	7.83	8.32	9.10	9.64	9.74	9.56	9.51	9.59	9.42	9.17	8.83	8.95	8.41	7.77	7.21	7.12	7.46	7.51	7.08	6.62	6.58	7.21	8.68	10.64	12.68	14.16	15.98	18.76	19.91	19.23	19.05	20.46	23.08	24.88	24.68	22.61	19.49	16.56	13.41	11.29	10.32	10.30	10.20	9.71	10.15	11.19	11.30	9.12	6.65	5.95	5.96	6.27	6.45	6.70	7.00	5.92	6.26	8.12	9.86	9.53	8.48	7.95	8.71	9.99	10.84	11.60	12.87	15.07	14.85	12.29	9.75	8.90	9.18	9.25	8.93	8.63	8.41	9.02	11.10	12.40	11.52	11.51	12.92	13.57	13.30	12.91	12.34	10.86	8.81	8.20	8.04	7.59	7.17	6.92	7.08	7.66	7.85	6.15	6.21	6.13	6.71	6.92	6.54	6.61	6.60	6.60
9.60	9.19	8.98	9.91	10.65	9.95	9.63	10.25	10.22	9.70	9.08	8.10	6.74	6.28	6.62	6.86	7.46	8.30	9.75	10.36	8.91	7.98	8.26	7.62	6.73	6.36	6.10	5.56	5.10	4.95	5.04	5.72	6.55	7.10	7.55	7.86	8.14	8.57	9.13	9.37	9.24	9.28	9.48	9.18	8.75	8.86	8.62	7.96	7.48	7.19	7.20	7.48	7.81	8.43	9.14	9.40	9.25	9.21	9.38	9.35	9.11	8.81	8.95	8.38	7.70	7.15	7.04	7.33	7.36	6.94	6.34	6.08	6.50	7.69	9.25	11.23	12.82	14.10	16.91	19.46	19.51	18.93	19.32	20.49	22.15	24.32	24.45	22.88	19.71	16.17	13.40	11.69	10.67	10.39	10.80	10.83	11.65	11.78	9.89	7.24	6.27	6.35	6.63	6.62	6.73	6.58	5.81	6.57	8.71	10.35	9.41	8.18	8.03	8.52	9.29	10.17	10.74	11.50	13.77	15.27	14.47	11.93	10.35	10.43	10.51	10.06	9.60	9.53	10.08	11.62	12.94	12.54	12.43	13.66	13.84	12.80	11.80	10.96	10.30	9.79	9.49	9.26	8.63	8.07	7.54	7.21	7.59	7.67	6.14	6.26	6.15	6.87	7.22	6.74	6.74	6.94	6.94
10.20	9.81	9.45	10.01	10.32	9.62	9.79	10.67	10.50	9.92	9.40	8.52	7.01	5.92	5.66	5.95	6.73	7.77	9.77	10.52	8.62	8.07	8.64	8.06	6.90	6.17	5.67	5.09	4.71	5.88	7.17	4.98	5.69	6.33	6.94	7.36	7.79	8.38	8.95	9.20	9.18	9.30	9.53	9.35	9.03	8.80	8.06	7.39	7.07	6.79	6.86	7.19	7.41	7.85	8.62	9.02	8.97	8.92	9.09	9.17	8.99	8.84	8.87	8.40	7.68	7.07	6.89	7.14	7.19	6.87	6.24	5.83	6.13	7.21	8.07	10.02	11.62	12.58	14.42	17.84	19.48	19.26	19.05	19.25	19.89	21.62	24.29	24.33	22.74	19.48	16.08	13.68	12.16	11.37	11.22	11.65	12.31	12.40	10.61	7.73	7.31	6.84	7.01	6.80	6.81	6.10	5.97	7.09	9.37	10.92	9.44	9.19	9.04	9.82	10.30	9.28	9.84	10.36	12.36	14.12	14.58	13.35	11.90	11.50	11.67	11.39	10.91	10.73	11.24	12.42	13.50	13.69	14.01	14.46	13.61	11.96	10.52	9.39	9.26	9.74	9.92	9.39	9.15	8.50	7.81	7.32	7.74	8.31	6.08	6.28	6.19	6.66	7.23	7.01	7.01	7.34	7.34
10.66	10.37	10.10	10.10	9.66	9.11	9.78	11.06	11.08	10.29	9.61	8.82	7.46	6.00	5.00	6.32	5.93	7.17	9.49	10.54	8.70	8.13	8.82	8.50	7.27	6.00	5.35	4.91	7.08	6.55	6.35	6.77	7.13	7.39	6.02	6.73	7.41	8.17	8.70	8.89	8.97	9.23	9.49	9.61	9.58	8.79	7.49	6.97	6.77	6.54	6.69	7.04	7.15	7.40	8.15	8.65	8.71	8.68	8.79	8.94	8.85	8.75	8.73	8.43	7.79	7.09	6.74	6.91	6.97	6.72	6.20	5.77	5.92	6.38	7.57	9.00	10.37	11.43	12.55	15.14	18.12	19.34	19.32	19.01	19.00	19.91	22.02	24.22	24.06	22.63	19.35	16.04	13.90	12.61	12.07	12.21	12.79	13.12	11.49	8.42	7.82	6.99	6.70	5.88	6.03	6.26	6.43	7.56	9.92	11.33	9.43	9.17	9.22	9.69	10.06	8.52	8.64	9.82	11.37	12.94	13.52	13.03	12.20	11.74	11.80	11.68	11.49	11.43	11.90	12.92	13.81	14.74	15.59	14.89	12.63	10.60	9.27	8.31	8.11	8.94	9.12	9.31	9.10	8.45	7.72	7.46	8.03	6.27	6.07	8.47	6.18	6.25	6.68	6.88	7.10	7.61	7.61
11.03	10.96	10.76	9.87	8.75	8.51	9.53	11.33	11.72	10.76	9.73	8.99	7.85	6.15	4.61	5.81	6.17	6.49	8.99	10.39	8.92	8.32	8.86	8.77	7.53	8.21	7.57	6.78	6.30	6.90	6.88	6.10	6.41	3.97	5.02	6.01	6.91	7.85	8.39	8.53	8.67	8.97	9.27	9.85	10.10	8.68	7.07	6.67	6.54	6.43	6.66	7.04	7.04	7.11	7.77	8.33	8.51	8.23	8.58	8.70	8.68	8.57	8.53	8.38	7.94	7.27	6.74	6.71	6.72	6.49	6.09	5.77	5.87	6.17	7.14	7.75	9.15	10.18	11.27	12.83	15.39	18.07	19.30	19.21	18.80	19.02	20.08	21.89	23.63	23.85	22.78	19.61	16.45	14.34	13.07	12.59	12.82	13.32	12.38	9.92	8.64	7.29	5.94	5.13	5.23	5.68	6.59	8.14	10.38	11.23	9.29	9.17	9.33	9.68	9.69	9.49	8.10	9.44	10.72	11.91	12.52	12.34	11.84	11.61	11.48	11.44	11.47	11.62	12.25	13.07	13.98	15.84	16.50	14.14	11.05	9.56	8.72	8.47	8.28	8.35	8.78	8.89	8.86	8.41	7.84	7.67	8.73	8.47	5.94	5.72	6.16	6.09	6.14	6.55	7.13	7.54	7.54
11.69	11.70	10.99	9.10	8.26	8.03	9.44	11.56	12.27	11.07	9.89	9.14	8.02	6.18	4.44	5.50	5.78	5.84	8.32	10.08	10.59	8.77	8.81	10.42	9.52	8.11	7.33	6.98	7.04	6.85	5.91	6.37	3.85	3.14	3.96	5.20	6.24	7.36	8.01	8.19	8.36	8.61	8.98	10.00	10.35	8.74	7.13	6.59	6.39	6.41	6.73	7.09	7.06	7.07	7.57	8.04	8.03	8.11	8.20	8.48	8.52	8.41	8.31	8.21	7.97	7.50	6.76	6.75	6.60	6.32	5.97	5.72	5.86	6.11	6.29	7.16	7.82	9.03	10.03	11.42	12.96	15.45	18.16	19.20	18.86	18.56	18.73	19.58	21.15	23.03	23.47	22.86	20.66	18.05	15.81	14.02	13.16	13.29	13.15	11.70	9.21	6.82	6.01	5.61	5.23	5.29	6.24	8.53	10.60	10.57	8.92	7.41	9.27	8.51	9.66	9.79	8.30	9.17	10.14	10.92	11.35	11.69	11.44	11.37	11.36	11.23	11.30	11.74	12.53	13.21	14.49	16.77	16.10	12.44	10.01	8.98	8.88	9.44	9.45	9.13	8.77	8.76	8.57	8.38	7.82	7.62	7.56	6.49	5.88	5.37	6.06	6.11	5.84	6.32	7.02	7.18	7.18
13.36	12.66	10.32	7.68	6.85	7.63	9.55	12.07	12.90	11.27	9.99	9.66	7.91	5.81	5.02	5.46	5.60	5.07	7.29	9.35	10.65	8.97	9.03	10.45	9.16	8.10	8.14	7.42	7.59	7.22	6.30	6.99	4.12	5.36	3.39	5.41	5.50	6.67	7.48	7.83	8.05	8.28	8.80	9.93	9.97	9.08	7.84	6.98	6.49	6.45	6.82	7.12	7.13	7.19	7.49	7.78	8.13	7.99	8.03	8.28	8.38	8.28	8.13	7.99	7.79	7.52	7.14	6.83	6.59	6.29	5.95	5.66	5.78	6.09	6.16	6.75	7.15	7.76	8.91	10.20	11.60	13.10	15.83	18.32	18.80	18.33	18.03	18.15	18.91	20.14	21.76	23.00	22.52	21.69	20.13	17.75	15.09	13.84	13.87	13.50	11.81	9.49	8.02	7.13	6.23	5.81	6.73	9.08	10.31	9.45	8.19	7.25	7.82	9.37	9.55	9.80	8.59	9.33	9.83	10.06	10.23	10.81	11.07	11.27	11.32	11.19	11.26	11.92	12.73	13.56	15.49	16.29	14.84	11.93	10.39	9.29	9.59	10.01	10.39	10.15	9.30	8.77	8.47	8.13	7.91	8.41	8.38	6.39	5.89	5.07	5.77	6.19	5.75	6.22	6.84	6.42	6.42
15.42	13.09	8.91	6.10	6.13	7.42	9.71	12.53	13.60	12.01	10.16	9.40	8.01	5.78	5.62	5.57	5.59	5.19	6.39	8.56	10.44	10.21	10.19	10.22	8.96	8.02	7.96	8.04	7.88	6.50	6.71	7.05	7.00	5.64	3.18	3.82	4.86	5.92	6.81	7.42	7.71	8.01	8.66	9.42	9.58	9.29	8.71	7.82	7.13	6.83	6.97	7.15	7.23	7.35	7.48	7.62	7.95	8.21	8.12	8.09	8.22	8.17	7.99	7.81	7.60	7.40	7.11	6.81	6.57	6.31	6.02	5.71	5.70	6.00	6.08	5.97	6.66	7.10	7.58	8.89	10.31	11.65	13.39	16.31	18.23	18.25	17.71	17.45	17.67	18.21	18.95	20.05	21.28	22.07	21.85	20.97	18.46	15.59	14.46	14.43	13.84	12.32	11.56	10.68	8.52	8.36	9.10	9.82	9.41	8.20	7.82	7.33	7.40	9.00	8.21	8.11	9.02	9.87	9.92	9.38	9.23	9.74	10.55	11.18	11.40	11.37	11.49	12.11	12.98	14.41	16.09	15.73	13.58	12.10	11.24	10.48	10.67	10.58	10.97	11.08	10.24	9.55	9.05	9.20	9.35	5.83	5.65	6.33	5.95	4.87	5.32	6.23	5.87	6.36	6.48	5.46	5.46
15.62	13.33	8.20	5.44	5.71	7.23	9.87	12.47	14.52	13.64	10.44	8.65	7.23	5.51	5.61	5.63	5.70	5.66	6.15	8.15	10.28	10.42	10.05	9.73	8.72	7.80	6.18	7.62	7.73	6.55	6.24	7.50	7.62	3.31	3.01	3.53	4.83	5.12	6.03	6.81	7.29	7.79	8.38	8.51	8.61	9.06	9.24	8.71	8.09	7.64	7.37	7.29	7.39	7.53	7.52	7.57	7.83	8.02	7.95	7.93	8.06	8.05	7.86	7.68	7.50	7.32	7.08	6.75	6.51	6.34	6.14	5.86	5.74	5.89	5.92	5.80	5.82	6.62	6.95	7.40	8.81	10.25	11.67	13.72	16.52	17.97	17.73	17.09	16.88	17.06	17.39	17.80	18.48	19.56	21.01	21.61	20.65	17.77	15.14	14.43	14.35	13.58	13.90	14.09	12.44	12.38	12.18	10.45	8.52	7.42	7.49	8.36	8.14	8.73	9.20	7.92	9.25	10.52	10.41	9.28	8.55	8.80	10.00	10.92	11.29	11.48	11.82	12.63	13.91	15.18	15.27	15.00	13.07	11.22	10.44	10.85	10.94	10.78	11.40	12.07	11.65	11.70	7.82	9.76	8.99	6.49	6.28	6.67	6.31	5.03	5.04	6.07	6.17	6.38	5.94	4.84	4.84
14.34	13.72	10.45	6.53	5.94	7.40	9.88	12.27	15.21	15.05	10.45	7.53	6.01	5.30	5.12	5.99	6.03	6.13	6.16	8.01	9.35	10.42	9.56	7.60	6.30	6.40	7.37	7.31	7.52	6.34	6.24	6.95	6.29	4.28	3.32	3.48	4.34	5.11	5.19	6.05	6.92	7.66	7.59	7.44	7.55	8.31	9.09	9.22	8.80	8.41	7.93	7.56	7.60	7.72	7.64	7.60	7.74	7.85	7.81	7.80	7.92	7.93	7.76	7.60	7.45	7.28	7.06	6.73	6.43	6.30	6.19	6.01	5.87	5.86	5.78	5.64	5.66	5.80	6.55	6.83	7.34	8.78	10.18	11.64	13.76	16.54	17.71	17.09	16.42	16.29	16.36	16.51	16.92	17.79	19.07	20.71	21.02	19.80	16.66	14.69	14.33	13.79	13.93	14.78	14.82	15.17	15.29	12.44	8.60	7.27	7.16	7.21	8.13	8.76	8.00	7.82	9.25	11.10	10.97	9.66	8.39	8.35	9.54	10.51	11.17	11.64	12.43	14.02	14.02	13.84	14.27	14.95	13.50	10.49	9.63	10.10	10.42	10.40	11.21	12.51	13.35	10.35	12.40	11.03	10.00	7.13	6.82	7.13	6.90	5.53	5.10	6.03	6.36	6.18	5.22	4.66	4.66
11.93	13.20	12.42	9.02	6.98	7.31	9.68	12.32	15.24	15.92	11.28	6.21	5.12	5.05	5.28	6.27	5.25	6.44	6.15	7.92	9.45	10.64	7.45	6.50	6.26	8.13	7.56	7.02	7.04	5.29	5.91	6.76	6.72	5.61	4.53	3.96	3.90	4.06	4.45	5.35	6.70	7.20	6.85	6.37	6.39	7.03	8.10	8.91	9.01	8.84	8.41	7.92	7.84	7.89	7.77	7.66	7.67	7.69	7.68	7.67	7.76	7.76	7.64	7.52	7.41	7.26	7.06	6.76	6.42	6.22	6.15	6.09	5.99	5.92	5.77	5.59	5.58	5.69	5.78	6.51	6.86	7.43	8.84	10.14	11.50	13.93	16.85	17.30	16.30	15.86	15.84	15.81	15.99	16.71	17.73	18.95	20.73	20.49	18.86	15.96	14.54	13.79	13.34	13.73	14.36	15.50	17.12	15.66	10.53	7.77	7.31	7.33	7.08	7.46	7.99	7.97	9.23	11.25	11.41	9.97	8.62	8.22	8.83	9.71	10.90	12.26	14.19	14.22	13.41	12.40	12.85	14.41	13.91	10.54	9.04	9.66	9.69	9.89	10.10	11.00	12.48	11.06	12.96	12.39	8.51	7.97	7.43	7.57	7.59	6.31	5.31	6.16	6.69	5.67	4.73	4.70	4.70
9.34	11.38	12.81	11.28	9.03	7.85	9.73	12.66	14.86	16.43	13.93	6.58	3.96	4.56	6.24	5.10	6.42	6.57	6.07	7.78	9.63	9.18	7.31	6.32	8.34	8.33	7.87	7.12	4.82	5.09	5.58	6.00	6.46	6.35	5.63	4.64	3.40	4.22	3.89	5.10	6.38	6.55	5.91	5.40	5.31	5.72	6.67	7.84	8.49	8.69	8.51	8.20	8.09	8.06	7.90	7.71	7.61	7.56	7.54	7.53	7.59	7.61	7.54	7.45	7.37	7.24	7.08	6.85	6.52	6.23	6.10	6.08	6.03	5.95	5.80	5.62	5.54	5.59	5.65	5.72	6.59	7.06	8.05	8.90	9.92	11.51	14.81	17.06	16.63	15.73	15.56	15.53	15.55	15.91	16.54	17.16	18.20	19.85	19.23	17.45	15.36	14.25	13.49	13.17	13.55	15.94	17.04	17.74	14.09	9.15	7.71	7.17	7.03	7.20	7.52	8.19	9.47	11.39	11.84	10.33	8.79	8.02	8.25	9.15	10.20	13.51	15.61	13.69	11.86	11.46	11.56	13.09	13.52	10.68	9.17	9.05	8.83	9.30	9.18	9.13	10.69	11.28	11.85	11.56	11.48	8.44	7.94	7.83	7.96	6.91	5.60	6.36	6.81	5.73	4.77	4.88	4.88
7.01	9.25	11.76	11.88	10.61	9.29	9.93	12.16	14.13	16.36	16.07	10.62	4.08	3.83	4.84	5.14	6.26	5.22	6.79	7.46	9.78	9.40	7.40	8.51	8.52	8.46	8.08	5.70	5.42	5.38	5.51	5.46	5.93	6.79	6.37	5.26	4.40	4.33	3.77	5.02	5.83	5.48	4.79	4.52	4.53	4.97	5.71	6.68	7.64	8.22	8.32	8.26	8.25	8.16	7.93	7.71	7.57	7.49	7.44	7.38	7.40	7.44	7.41	7.36	7.30	7.21	7.08	6.91	6.65	6.36	6.14	6.05	5.99	5.90	5.77	5.63	5.53	5.49	5.58	5.61	5.82	6.86	7.34	8.18	8.74	9.78	12.16	15.60	16.83	16.13	15.47	15.22	15.10	15.26	15.59	15.90	16.40	17.56	18.71	17.37	15.94	14.69	13.86	14.47	14.52	15.17	16.22	18.26	16.97	12.02	8.73	7.56	7.01	6.47	7.07	8.10	9.55	11.65	12.51	11.05	9.21	7.83	7.89	8.76	10.70	14.49	15.16	12.20	11.04	10.99	10.52	11.48	12.45	11.03	9.16	7.71	7.86	8.88	9.19	9.87	11.45	10.63	10.65	10.92	10.47	10.75	8.24	8.02	8.15	7.35	5.80	6.31	6.17	5.40	4.65	4.85	4.85
5.60	7.22	10.02	10.95	10.60	10.15	10.14	11.62	13.80	15.57	16.96	13.78	6.06	3.92	4.42	4.74	5.89	6.05	6.64	6.97	9.49	9.38	7.59	8.91	8.76	8.58	8.35	6.24	6.21	6.05	5.73	5.14	5.77	6.98	6.93	5.89	4.54	4.06	4.23	6.68	5.47	4.34	3.74	3.68	3.86	4.43	5.01	5.64	6.69	7.66	8.01	8.21	8.36	8.27	7.92	7.63	7.52	7.47	7.36	7.23	7.20	7.24	7.26	7.23	7.19	7.14	7.06	6.93	6.74	6.51	6.28	6.09	5.97	5.84	5.70	5.61	5.53	5.46	5.49	5.52	5.64	6.02	7.10	7.46	8.14	8.75	10.25	13.00	15.78	16.43	15.69	15.00	14.61	14.59	14.75	14.90	15.29	16.11	16.92	17.08	16.45	15.56	14.78	13.59	13.62	14.22	15.54	17.45	18.21	15.29	10.74	8.46	7.20	6.34	6.66	7.68	9.33	11.82	13.31	12.07	9.88	8.29	8.12	9.35	12.44	15.05	13.90	11.43	10.96	10.75	10.07	10.17	10.92	11.27	10.72	8.99	8.76	10.07	8.48	8.91	10.00	11.07	8.00	8.05	8.33	8.48	8.14	7.88	8.20	7.96	6.25	6.38	5.66	4.80	4.32	4.81	4.81
4.99	6.04	8.61	9.70	9.80	10.08	10.79	11.74	13.22	14.94	17.24	15.68	8.65	4.41	4.24	4.21	4.03	5.85	5.40	6.58	9.67	8.96	7.54	9.05	9.00	8.94	8.52	6.58	6.87	6.82	6.16	5.30	5.88	7.05	7.18	6.21	5.05	4.85	6.06	5.90	4.74	3.32	2.87	2.91	3.30	4.03	4.46	4.91	5.92	7.07	7.64	8.09	8.47	8.44	7.94	7.47	7.37	7.37	7.25	7.05	6.98	7.03	7.08	7.08	7.04	7.01	6.99	6.90	6.76	6.61	6.46	6.24	6.05	5.89	5.69	5.54	5.46	5.43	5.39	5.37	5.46	5.69	6.71	7.28	7.57	8.29	9.27	11.06	13.80	15.96	15.81	14.86	14.22	14.01	14.04	14.04	14.31	15.05	15.60	15.58	15.32	14.95	13.88	13.68	13.76	14.19	15.07	16.52	18.04	17.21	13.40	9.92	8.06	6.61	6.03	6.86	8.63	11.58	13.89	13.07	10.75	9.28	9.44	11.52	13.63	13.82	12.24	11.22	11.06	10.88	10.73	11.02	10.86	11.21	10.72	9.45	9.77	9.11	8.76	9.15	10.82	11.09	10.05	9.49	7.05	7.75	7.72	7.48	8.04	8.44	6.61	6.49	5.36	4.39	3.96	6.31	6.31
4.77	5.50	7.72	8.86	9.21	9.79	10.72	11.34	12.58	14.71	16.72	17.08	13.18	6.10	4.07	3.70	4.73	4.29	5.27	6.52	8.04	8.16	7.75	9.42	9.45	7.87	8.94	6.83	7.20	7.42	6.70	5.88	6.27	7.25	7.24	6.21	5.39	6.96	7.06	5.97	4.75	3.54	3.40	3.46	2.90	3.52	3.81	4.32	5.20	6.26	7.22	7.88	8.55	8.74	8.15	7.35	7.08	7.12	7.05	6.85	6.75	6.81	6.86	6.83	6.81	6.79	6.84	6.79	6.70	6.63	6.57	6.40	6.18	6.02	5.80	5.54	5.37	5.38	5.36	5.27	5.31	5.45	5.75	6.95	7.54	7.78	8.76	10.02	12.41	15.13	15.64	14.71	13.94	13.61	13.57	13.49	13.62	14.24	14.71	14.59	14.40	14.30	13.55	13.52	13.67	14.10	15.47	15.78	17.17	17.72	15.61	11.97	9.26	7.25	5.97	6.24	7.90	10.98	13.99	13.80	11.79	10.40	10.91	12.77	13.02	11.46	10.87	11.10	11.17	11.40	11.11	11.22	10.51	10.82	10.20	9.78	10.76	8.26	9.07	9.50	11.67	9.92	7.53	6.47	6.21	6.59	7.02	7.12	7.90	8.54	6.60	6.19	5.08	3.98	5.66	6.24	6.24
4.72	5.10	6.92	8.17	8.68	9.68	10.53	10.90	11.89	13.83	15.70	17.27	16.07	10.54	4.67	3.52	4.79	5.04	5.13	6.58	7.15	7.09	7.30	7.94	9.49	9.43	7.73	8.65	7.40	7.63	6.98	6.23	6.48	7.39	7.20	6.27	5.85	8.05	7.98	5.74	4.03	3.83	3.71	3.83	3.89	4.32	3.86	3.79	4.54	5.53	6.65	7.55	8.43	9.08	8.61	7.66	6.82	6.77	6.73	6.59	6.55	6.64	6.71	6.60	6.49	6.48	6.57	6.60	6.55	6.54	6.58	6.49	6.29	6.17	5.99	5.64	5.39	5.37	5.40	5.24	5.11	5.19	5.40	5.92	7.31	7.91	8.68	9.44	11.60	14.39	15.35	14.61	13.81	13.40	13.30	13.23	13.28	13.76	14.13	14.02	13.87	13.21	13.20	13.30	14.29	14.80	15.36	16.11	17.39	17.25	16.66	14.12	11.00	8.36	6.45	6.04	7.50	10.38	13.85	14.25	12.79	11.53	12.35	13.15	11.44	9.76	10.05	11.15	11.60	11.31	12.25	11.51	10.99	11.34	10.51	10.57	8.91	9.09	9.88	9.93	9.84	9.31	8.51	7.37	6.41	6.30	6.92	7.42	8.17	8.46	7.53	6.90	6.69	5.60	5.58	6.22	6.22
4.58	4.76	6.26	7.60	8.28	9.61	10.42	10.63	11.51	13.05	14.52	16.16	17.12	14.14	6.80	4.06	3.82	4.14	5.35	6.34	6.21	5.93	6.38	7.53	8.09	8.12	9.50	7.52	7.74	7.64	6.95	6.39	6.63	7.27	7.07	6.48	6.40	8.94	7.41	5.34	3.93	4.23	4.21	3.20	3.49	3.39	4.05	3.68	3.91	4.75	5.76	7.05	7.97	9.08	9.75	8.59	6.96	6.46	6.33	6.21	6.35	6.53	6.70	6.52	6.14	6.02	6.18	6.28	6.30	6.35	6.49	6.50	6.36	6.28	6.16	5.80	5.46	5.38	5.42	5.24	4.97	4.90	5.04	5.44	6.77	7.75	8.82	9.47	11.11	13.74	15.05	14.59	13.78	13.34	13.17	13.11	13.15	13.52	13.77	13.69	13.62	13.00	13.03	13.97	14.37	14.81	15.40	15.92	15.57	16.50	16.66	15.55	13.06	10.02	7.54	6.62	7.72	10.22	13.35	14.30	13.19	12.37	13.22	12.76	10.59	9.69	9.99	11.12	11.86	11.50	12.15	11.47	11.34	12.08	11.87	11.24	9.17	8.72	9.45	10.15	10.37	10.27	9.85	8.68	7.66	7.61	7.90	8.34	8.52	9.13	7.93	6.89	6.70	5.53	4.75	5.95	5.95
4.34	4.46	5.79	7.16	8.81	10.19	10.53	10.61	11.57	12.61	13.75	14.97	17.06	16.08	10.00	4.78	4.47	4.99	5.71	6.07	5.51	5.18	6.99	6.62	7.54	8.01	8.08	8.54	8.75	7.76	6.93	6.68	6.83	7.11	6.98	6.82	8.99	7.86	9.14	5.28	4.88	3.85	3.76	4.64	3.25	3.19	3.19	3.45	3.87	4.07	5.02	6.15	7.16	8.50	10.09	9.60	7.85	6.61	5.95	5.82	6.07	6.40	6.87	6.72	5.86	5.45	5.62	5.78	5.90	6.04	6.26	6.42	6.38	6.31	6.24	5.95	5.59	5.41	5.41	5.25	4.94	4.69	4.66	4.99	6.14	7.18	8.93	9.86	10.73	12.92	14.72	14.68	13.92	13.38	13.10	12.97	12.95	13.17	13.35	13.37	13.44	13.49	13.63	13.96	14.38	14.85	15.22	14.60	15.12	15.79	16.19	15.94	14.67	12.01	9.24	8.06	8.70	10.58	13.05	14.18	13.42	13.18	13.09	11.84	10.22	10.02	10.27	11.25	12.10	13.08	11.86	10.74	10.82	12.40	12.74	10.31	9.81	9.03	9.49	10.02	10.73	11.35	11.25	10.06	9.31	9.27	9.17	9.20	8.67	8.02	8.15	6.99	6.95	4.07	4.33	6.50	6.50
3.98	3.99	5.16	6.39	8.25	9.89	10.88	11.03	11.68	12.43	13.12	14.12	16.07	17.21	13.42	5.63	4.83	5.77	5.95	5.76	6.91	6.28	4.79	6.77	6.79	7.93	8.17	9.01	9.39	7.97	6.78	6.76	6.97	6.93	6.90	7.70	7.49	8.66	7.96	6.51	3.75	4.13	3.45	4.67	3.15	2.94	3.04	3.37	3.76	4.39	4.84	5.33	6.25	7.57	9.59	10.30	8.97	7.28	6.10	5.65	5.79	6.21	7.22	7.29	5.88	4.94	4.99	5.19	5.37	5.58	5.88	6.20	6.35	6.29	6.22	6.06	5.75	5.49	5.38	5.24	4.99	4.62	4.42	4.67	5.12	6.39	8.30	9.64	10.07	11.46	13.79	14.61	14.15	13.54	13.09	12.79	12.68	12.77	12.92	12.97	13.15	13.32	13.49	13.86	14.28	14.64	14.94	14.39	14.79	15.25	15.60	15.66	15.21	13.57	11.25	9.98	10.15	11.26	13.07	14.07	14.00	13.22	12.29	10.75	9.89	10.07	12.03	12.87	13.80	13.89	11.79	10.11	10.85	11.81	11.09	10.52	9.66	8.91	9.33	9.66	10.65	11.90	12.15	11.39	10.99	11.09	10.57	9.83	8.21	7.49	8.16	6.96	6.88	4.40	4.19	6.13	6.13
3.61	3.41	4.16	5.95	6.74	8.75	10.24	11.08	11.82	12.51	12.81	13.46	14.91	17.16	15.92	9.22	5.69	6.31	6.13	5.39	5.26	4.91	6.01	4.83	5.79	7.38	8.32	9.09	9.16	7.74	6.50	6.50	6.79	6.69	7.22	9.45	8.21	9.45	8.81	6.03	4.56	5.80	4.87	3.08	3.18	3.05	1.76	3.64	4.19	4.63	4.67	4.56	5.38	6.87	8.64	10.00	9.67	8.06	6.73	6.15	5.79	6.11	7.50	8.07	6.56	4.85	4.33	4.58	4.80	5.02	5.36	5.87	6.23	6.26	6.15	6.06	5.90	5.59	5.34	5.22	5.02	4.59	4.31	4.45	4.76	5.89	7.64	9.04	9.34	9.85	11.94	13.75	14.15	13.82	13.25	12.73	12.52	12.62	12.75	12.76	12.91	13.11	13.23	13.55	13.92	14.29	13.81	14.17	14.51	14.91	15.17	15.19	14.95	14.04	12.70	11.86	11.80	12.28	13.26	14.07	14.08	12.70	11.09	9.95	9.60	9.98	10.66	12.97	14.36	14.79	12.99	10.76	11.27	10.50	10.35	9.86	8.74	8.73	9.16	9.48	10.38	11.70	12.46	12.54	12.80	13.07	12.18	10.34	8.01	7.14	8.13	7.13	5.99	4.94	4.31	6.84	6.84
3.47	3.11	3.40	4.25	5.23	6.98	8.63	10.15	11.41	12.31	12.72	13.03	13.92	15.96	16.62	14.58	10.38	7.88	6.21	5.36	5.07	4.83	4.72	5.96	5.01	6.76	8.45	9.75	9.19	7.27	6.31	6.19	6.38	6.64	7.15	7.81	8.73	10.05	10.16	8.08	7.82	6.56	2.99	3.18	3.16	2.15	3.04	3.72	4.10	4.61	4.52	4.03	5.12	6.72	8.03	9.28	9.56	8.48	7.38	6.89	6.32	6.28	7.63	8.72	7.66	5.44	4.11	3.98	4.15	4.42	4.72	5.37	5.96	6.17	6.06	5.97	5.94	5.68	5.34	5.19	5.01	4.56	4.23	4.30	4.56	5.71	6.85	8.46	8.84	8.92	10.04	11.93	13.28	13.80	13.68	13.20	12.80	12.71	12.73	12.62	12.74	13.05	13.15	13.09	13.41	13.95	13.61	13.96	14.28	14.72	14.95	14.90	14.57	13.86	13.19	13.02	13.16	13.32	13.72	14.28	13.93	11.81	9.92	9.31	9.25	11.16	10.34	12.58	13.01	13.71	14.01	13.12	13.05	10.74	11.18	11.06	9.88	9.17	9.21	9.29	10.04	11.24	11.95	12.92	14.15	15.08	14.13	11.01	7.98	6.81	8.04	6.30	6.08	5.54	4.48	6.39	6.39
3.38	3.10	3.38	3.85	3.96	5.83	7.05	8.71	10.54	11.77	12.44	12.64	13.12	14.25	16.05	15.76	14.84	12.51	7.98	5.39	4.94	4.69	4.60	4.42	4.46	5.61	8.54	10.00	8.82	6.92	6.13	5.92	5.89	6.18	6.69	7.27	8.20	9.64	10.72	11.86	10.40	5.98	3.81	2.62	3.36	2.41	3.89	3.87	4.30	4.95	4.36	3.77	5.35	6.85	7.95	8.85	8.79	8.52	7.67	7.36	6.99	6.74	7.79	9.28	8.86	6.48	4.45	3.84	3.80	3.78	3.94	4.73	5.49	5.93	5.97	5.89	5.91	5.73	5.39	5.19	5.02	4.60	4.28	4.31	4.50	5.08	6.51	7.35	8.33	8.49	8.97	10.17	11.52	12.68	13.47	13.77	13.56	13.14	12.83	12.53	12.61	12.91	12.90	12.80	13.09	13.67	13.37	13.69	14.07	14.58	14.87	14.84	14.42	13.72	13.24	13.45	13.83	14.12	14.29	14.64	13.60	11.13	9.17	8.82	9.02	10.98	11.53	11.78	10.74	11.10	12.68	13.54	14.20	11.72	11.91	12.15	11.38	10.03	9.16	8.80	9.43	10.49	11.15	12.25	14.04	16.08	16.01	12.72	8.47	6.90	6.71	6.33	6.29	6.00	4.50	4.70	4.70
3.23	3.19	3.58	3.53	3.89	4.71	6.02	7.28	9.40	11.10	12.01	12.29	12.49	12.62	13.50	14.73	16.02	15.41	12.62	7.10	5.11	4.73	4.62	4.34	4.09	5.11	8.61	10.11	8.35	6.77	5.98	5.75	5.51	5.52	6.13	7.08	7.83	8.92	10.76	12.40	9.99	7.92	4.91	3.20	2.55	3.51	3.66	3.67	4.63	5.23	4.50	3.60	5.20	6.81	7.96	8.70	8.49	8.50	7.83	7.50	7.37	7.12	7.81	9.55	9.99	7.99	5.44	4.22	3.77	3.48	3.46	4.14	4.93	5.55	5.83	5.87	5.85	5.70	5.46	5.24	5.03	4.64	4.37	4.45	4.57	4.98	5.72	6.88	7.40	7.68	8.45	9.16	10.09	10.97	11.98	13.17	13.96	13.75	13.18	12.78	12.50	12.55	12.66	12.68	12.95	13.48	13.10	13.46	13.91	14.46	14.89	14.96	14.56	13.88	13.47	13.62	13.99	14.53	14.81	14.51	13.09	11.11	9.38	8.95	10.86	11.75	11.45	11.65	11.49	11.15	11.42	12.32	11.37	11.68	11.87	12.28	12.25	11.23	9.78	8.74	9.00	10.04	10.49	11.31	12.95	15.46	16.82	15.00	10.26	7.70	7.09	6.65	6.73	6.60	4.66	4.47	4.47
3.10	3.27	3.61	3.56	3.96	4.44	5.68	6.26	8.08	10.19	11.48	11.93	11.64	11.60	11.68	12.49	14.14	15.89	15.42	12.56	7.89	5.60	5.07	4.68	4.24	5.33	8.81	9.61	7.94	6.67	5.81	5.50	5.27	5.10	5.70	6.84	8.28	9.56	11.53	10.54	10.60	9.31	6.41	4.18	2.69	2.42	3.54	3.68	4.81	4.57	4.86	3.59	4.82	6.44	7.70	8.43	8.30	8.32	7.76	7.50	7.32	7.12	7.42	9.03	10.79	9.86	7.24	5.23	4.12	3.43	3.22	3.57	4.36	5.04	5.57	5.80	5.78	5.65	5.53	5.37	5.06	4.66	4.46	4.58	4.70	4.94	5.42	6.07	7.04	7.37	7.68	8.66	9.43	10.08	10.59	11.55	13.21	14.02	13.60	13.01	12.58	12.50	12.56	12.59	12.87	13.37	13.65	13.22	13.78	14.62	15.14	15.35	15.06	14.47	13.93	13.80	13.77	14.52	14.94	14.18	12.56	11.41	10.33	9.87	11.43	10.04	11.69	11.82	11.48	11.13	11.12	11.95	10.27	11.20	11.60	11.88	12.42	12.31	11.08	9.57	9.28	9.85	10.29	10.82	12.15	14.23	16.30	16.10	12.65	9.52	8.48	8.04	8.23	7.75	5.30	4.38	4.38
2.95	3.25	3.43	3.31	3.87	4.16	5.45	5.77	6.92	9.13	10.91	11.39	11.05	10.52	10.72	11.45	12.43	14.06	15.23	15.22	12.52	8.70	6.73	5.78	5.20	6.62	9.08	9.00	7.67	6.69	5.71	5.27	6.01	5.13	6.10	6.43	7.87	9.18	9.53	10.90	11.07	10.32	8.44	5.72	3.35	2.25	2.38	3.46	4.66	3.34	4.72	3.79	4.49	5.99	7.31	7.97	8.27	8.34	8.20	7.55	7.22	7.02	6.98	7.95	10.03	10.90	9.21	6.92	5.09	3.75	3.22	3.32	3.77	4.49	5.16	5.58	5.64	5.57	5.55	5.51	5.20	4.73	4.54	4.65	4.82	5.04	5.22	5.65	6.26	7.06	7.40	7.88	8.96	9.54	9.87	10.22	11.52	13.26	13.68	13.20	12.82	12.68	12.64	12.57	12.81	13.29	13.42	13.74	13.92	14.46	15.14	15.70	15.82	15.44	14.69	13.92	13.39	13.68	14.83	13.70	12.00	11.19	10.60	10.33	11.52	10.49	11.91	11.98	11.52	10.91	11.06	8.81	9.29	10.30	11.08	11.36	12.01	12.60	11.79	10.29	9.47	10.01	10.46	10.86	11.90	13.43	15.02	15.44	14.03	11.40	10.09	9.84	9.80	9.39	6.67	4.87	4.87
2.84	3.27	3.42	3.09	3.38	3.97	5.21	5.41	6.27	8.37	10.37	10.76	10.28	9.82	9.93	10.75	11.49	12.22	13.65	15.44	14.27	11.86	9.31	7.76	7.08	8.20	9.58	8.72	7.57	6.79	5.88	5.22	5.88	5.79	6.03	6.44	7.01	7.81	9.03	10.99	11.34	10.81	9.92	7.87	4.74	2.44	2.21	3.15	4.09	2.76	3.35	5.48	4.11	5.60	6.89	7.46	7.79	8.47	8.31	7.57	7.16	6.81	6.85	7.13	8.71	10.61	10.36	8.57	6.62	4.61	3.46	3.25	3.49	4.05	4.72	5.28	5.46	5.46	5.49	5.56	5.39	4.93	4.64	4.65	4.88	5.16	5.17	5.28	5.85	6.39	7.25	7.65	8.04	8.96	9.32	9.48	9.97	11.47	12.85	13.07	12.83	12.75	12.74	12.62	12.77	13.17	13.23	13.43	14.00	14.39	15.22	16.13	16.85	16.87	15.82	14.27	13.31	13.69	13.88	12.75	11.14	10.24	9.91	9.88	10.99	10.33	11.82	12.02	11.88	11.20	10.97	8.33	8.71	9.63	10.61	10.86	11.17	12.02	12.08	11.01	10.02	10.24	10.77	11.20	11.96	12.98	13.83	14.29	13.83	12.05	10.46	10.11	10.16	10.18	7.98	5.94	5.94
2.87	3.41	3.60	3.19	3.37	3.88	5.04	5.15	5.97	8.09	9.84	10.16	9.58	9.11	9.22	9.74	10.62	11.43	12.34	13.42	13.21	12.51	10.32	8.56	8.05	9.16	10.29	9.16	7.65	6.74	6.00	6.26	5.85	5.71	5.61	5.82	6.20	6.74	8.28	10.71	11.62	11.08	10.54	9.39	6.25	2.86	2.20	3.53	3.55	2.16	2.80	3.35	3.87	5.15	6.45	7.11	7.11	8.04	8.34	7.66	7.10	6.91	6.91	6.84	7.61	9.60	10.57	9.70	7.94	5.83	4.04	3.35	3.36	3.72	4.34	4.93	5.27	5.36	5.33	5.44	5.50	5.20	4.81	4.66	4.88	5.20	5.15	5.07	5.48	6.23	7.37	7.71	7.84	8.47	8.76	8.99	9.14	9.79	11.15	12.25	12.54	12.57	12.69	12.66	12.80	13.12	13.14	13.21	13.68	14.36	15.24	16.18	17.59	18.50	17.37	15.20	13.60	13.27	12.96	11.87	10.42	9.42	9.15	9.23	10.46	9.66	11.46	11.98	9.69	9.15	8.89	8.87	9.05	9.62	10.35	10.50	10.47	11.09	11.70	11.22	10.55	10.59	11.07	11.60	12.28	12.80	13.04	13.03	12.87	11.72	10.26	9.69	9.80	10.24	8.58	6.74	6.74
3.03	3.53	3.72	3.45	3.55	3.89	4.87	4.95	5.89	8.08	9.26	9.32	8.93	8.56	8.47	9.07	9.79	10.50	11.41	11.98	12.83	13.09	10.24	8.00	7.65	9.04	10.60	9.75	7.80	6.52	5.84	6.20	5.82	5.41	5.04	5.22	5.53	6.06	7.27	9.81	11.52	11.54	11.07	10.29	7.05	3.40	3.30	3.55	3.33	2.95	2.24	2.85	3.52	4.47	6.01	6.50	6.81	7.21	8.20	7.77	6.97	7.13	7.10	6.92	6.93	8.30	10.11	10.38	8.90	6.89	4.89	3.66	3.32	3.46	4.04	4.61	5.06	5.24	5.14	5.18	5.43	5.43	5.08	4.77	4.90	5.19	5.06	4.85	5.18	6.06	7.50	8.01	7.96	7.75	8.31	8.50	8.64	8.87	9.56	10.74	11.72	12.08	12.32	12.48	12.69	13.05	13.17	13.20	13.49	14.04	14.81	15.92	17.79	19.99	18.97	16.66	14.25	13.27	12.50	11.48	10.33	10.54	10.28	10.45	10.46	10.70	10.76	9.24	10.96	11.26	9.13	9.19	9.27	9.67	10.32	10.48	10.23	10.40	10.98	10.95	10.74	10.82	11.27	11.98	12.74	12.90	12.44	11.90	12.16	11.35	10.29	9.72	9.60	10.21	8.99	7.30	7.30
3.32	3.62	3.71	3.67	3.87	4.03	4.79	4.89	6.07	8.05	8.76	8.55	8.34	8.18	8.07	8.69	9.38	9.78	10.42	11.17	12.23	13.25	10.61	7.75	7.17	8.42	10.37	10.20	8.10	6.26	5.40	5.22	5.95	5.43	5.11	5.21	5.09	5.63	6.51	8.69	10.68	11.55	11.80	11.17	7.88	4.20	3.62	3.71	3.39	2.88	1.98	2.48	3.07	3.81	5.36	6.69	6.81	7.38	7.71	7.65	6.76	7.01	7.64	7.26	6.60	7.06	9.01	10.48	9.81	7.86	5.78	4.15	3.36	3.30	3.72	4.34	4.88	5.14	5.01	4.93	5.20	5.48	5.33	4.96	4.98	5.19	5.00	4.61	4.78	5.66	7.38	8.32	8.34	7.88	7.63	8.09	8.13	8.22	8.51	9.22	10.34	11.18	11.61	11.93	12.21	12.68	13.07	13.22	13.37	13.67	14.19	15.01	16.75	20.39	21.10	19.04	15.86	13.90	12.50	11.34	11.59	11.06	9.05	8.58	8.36	8.28	8.30	10.54	10.50	10.32	8.60	8.80	8.97	9.49	10.32	10.62	10.03	10.04	10.30	10.26	10.30	10.62	11.14	12.08	13.20	13.21	12.11	11.97	11.65	11.06	10.37	9.80	9.69	10.31	9.12	8.08	8.08
3.75	3.76	3.62	3.71	3.93	4.07	4.81	5.01	6.38	7.85	8.25	8.04	7.93	7.77	7.74	8.29	9.00	9.45	9.79	10.44	11.87	13.06	11.45	8.15	6.87	7.81	9.65	10.39	8.79	6.36	5.17	5.28	6.29	5.90	4.84	5.63	5.80	5.46	6.22	8.11	9.99	11.30	12.21	11.92	8.72	5.05	3.98	3.95	3.45	4.10	2.01	2.30	4.62	5.00	4.34	5.99	6.95	7.43	7.78	7.32	6.53	6.87	7.79	7.83	6.73	6.26	7.75	9.85	10.33	8.94	6.75	4.78	3.56	3.20	3.38	4.02	4.66	5.04	5.00	4.78	4.93	5.34	5.40	5.10	5.06	5.20	5.03	4.56	4.44	5.02	6.18	8.06	8.73	8.37	7.86	7.53	7.29	7.65	7.73	8.12	8.88	9.87	10.55	10.96	11.26	11.65	12.07	12.40	12.74	13.09	13.51	14.24	15.73	19.11	22.18	21.62	18.54	15.38	13.06	11.38	10.59	10.20	9.54	8.76	8.15	7.77	9.61	9.76	9.64	9.85	7.81	8.23	8.52	9.17	10.17	10.73	10.22	9.89	9.78	9.61	9.70	10.13	10.63	11.64	13.24	13.53	12.44	11.80	11.25	10.44	10.23	10.16	9.88	10.27	9.84	8.99	8.99
4.22	4.04	3.69	3.73	3.94	4.45	4.78	5.22	6.55	7.42	7.74	7.57	7.60	7.19	6.97	8.07	8.61	9.07	9.52	10.02	11.30	13.15	12.41	8.97	7.07	7.41	8.78	10.12	9.10	6.47	5.01	5.19	6.10	5.95	5.71	5.61	5.33	5.41	5.98	7.66	9.62	11.17	12.47	12.54	9.45	5.65	4.30	3.43	3.76	4.17	2.12	4.09	3.87	4.30	3.61	5.23	6.75	7.74	7.99	7.38	6.79	7.05	7.75	8.33	7.31	5.97	6.80	8.82	10.22	9.90	7.87	5.60	4.01	3.25	3.17	3.56	4.34	4.84	4.98	4.76	4.78	5.14	5.30	5.14	5.08	5.17	5.13	4.75	4.44	4.62	5.33	6.56	8.28	8.62	8.27	7.79	7.34	6.94	6.73	7.44	7.83	8.54	9.33	9.87	10.19	10.46	10.65	10.90	11.47	12.17	12.82	13.73	15.29	17.99	21.55	22.98	21.60	17.91	14.33	11.91	10.96	10.64	10.11	9.35	8.44	7.57	8.93	9.16	9.18	9.13	9.46	7.54	7.99	8.68	9.81	10.71	10.63	10.13	9.59	9.16	9.18	9.60	10.07	10.99	12.69	13.51	12.07	11.77	10.65	10.33	10.38	10.45	9.99	10.12	10.01	9.32	9.32
4.49	4.30	3.89	3.91	4.06	4.53	4.97	5.57	5.55	7.23	7.29	7.19	7.20	6.81	6.60	7.73	8.25	8.68	9.15	9.75	10.82	13.45	13.13	10.29	7.70	7.17	8.41	9.72	8.75	6.01	4.49	4.40	5.14	5.28	5.27	5.27	5.01	5.33	5.75	7.17	9.19	11.00	12.72	13.27	10.28	6.18	4.03	3.72	4.12	4.45	3.58	4.19	3.84	4.00	3.10	4.34	6.15	7.75	8.18	7.60	7.27	7.03	7.49	8.50	7.89	6.08	6.22	7.77	9.56	10.33	8.97	6.66	4.72	3.58	3.14	3.28	3.93	4.51	4.82	4.86	4.86	5.06	5.18	5.10	5.04	5.10	5.14	4.93	4.64	4.60	4.94	5.67	6.71	8.09	8.32	8.01	7.55	7.04	6.64	6.59	7.34	7.69	8.30	8.95	9.40	9.66	9.71	9.71	10.12	11.06	12.13	13.27	14.90	17.29	20.36	23.24	23.45	20.73	16.45	13.31	11.95	11.28	10.61	9.93	8.98	7.74	8.73	8.71	8.84	8.82	8.91	9.04	7.13	8.01	9.25	10.45	11.00	10.65	9.80	8.95	8.74	9.12	9.66	10.61	12.11	12.82	12.09	11.31	10.71	10.26	10.40	10.70	10.27	9.99	10.08	9.58	9.58
4.68	4.44	4.08	4.15	4.49	4.88	5.39	5.03	6.39	6.91	6.87	6.88	6.53	6.37	6.16	7.35	7.83	8.38	8.83	9.44	10.47	12.88	13.43	11.71	8.61	7.35	8.52	9.51	8.26	5.49	4.10	3.72	3.94	4.53	4.39	4.94	4.80	5.16	5.63	6.81	8.67	10.59	12.61	13.98	10.99	6.11	4.26	3.67	3.73	4.79	4.95	4.40	4.08	3.93	3.91	3.71	5.33	7.42	8.31	8.00	7.65	7.11	7.41	8.35	8.00	6.40	5.95	6.87	8.61	9.90	9.66	7.82	5.66	4.19	3.40	3.20	3.47	4.08	4.47	4.73	4.90	5.05	5.12	5.08	5.01	5.05	5.13	4.99	4.78	4.70	4.88	5.31	5.88	6.76	7.40	7.49	7.61	7.18	6.70	6.52	6.61	7.39	7.73	8.25	8.82	9.15	9.17	9.08	9.25	9.93	11.19	12.66	14.26	16.50	19.39	22.55	24.48	22.56	18.91	15.56	13.62	12.35	11.29	10.39	9.38	8.10	8.31	8.58	8.60	8.61	8.64	8.61	8.44	6.98	8.32	9.75	10.85	11.15	10.43	9.34	8.69	8.77	9.35	10.42	11.62	12.04	11.70	11.23	10.78	10.27	10.39	10.94	10.30	10.27	9.37	8.61	8.61
4.76	4.59	4.37	4.44	4.54	4.54	4.84	5.98	6.35	6.60	6.08	6.22	6.25	5.99	5.73	6.89	7.38	7.95	8.50	9.17	10.16	12.20	14.34	12.80	9.64	7.87	8.87	9.43	7.71	5.18	4.27	4.75	4.51	4.35	4.62	5.31	4.41	4.77	5.34	6.47	8.27	10.09	11.94	14.44	11.88	5.71	4.59	4.23	4.28	4.79	3.98	4.42	4.28	4.03	3.93	3.47	4.69	6.77	8.31	8.84	8.46	7.36	7.65	8.22	7.68	6.67	6.00	6.32	7.70	9.02	9.57	8.70	6.67	4.96	3.87	3.34	3.28	3.64	4.05	4.41	4.75	4.93	5.04	5.06	5.00	5.09	5.21	5.10	4.86	4.74	4.88	5.21	5.51	6.08	6.64	6.93	6.97	6.71	6.64	6.39	6.44	6.67	7.51	7.83	8.30	8.79	8.94	8.85	8.92	9.31	10.21	11.76	13.47	15.32	17.99	21.07	23.36	22.93	20.71	17.61	15.41	13.78	12.22	10.75	9.47	8.35	7.49	8.10	8.36	8.47	8.51	8.41	8.27	6.23	7.10	8.64	10.11	11.17	10.98	10.08	9.13	8.61	9.03	10.12	11.12	11.38	11.26	10.96	10.69	10.29	10.41	11.19	10.40	10.32	9.21	6.99	6.99
4.49	4.58	4.52	4.48	4.48	4.63	5.48	5.94	6.23	5.74	5.81	5.91	5.93	5.72	5.48	6.54	7.01	7.55	8.13	8.95	9.91	11.59	13.87	13.15	10.65	8.67	9.33	9.33	6.98	4.77	4.29	4.09	4.48	4.25	4.50	5.12	4.09	4.38	4.91	5.96	7.66	9.28	10.78	14.48	12.53	5.69	4.70	4.53	4.40	4.66	3.91	4.34	4.24	4.02	3.84	3.44	4.32	5.99	8.18	9.26	9.32	8.14	8.09	8.08	7.30	6.72	6.31	6.35	7.15	8.11	8.86	8.88	7.45	5.76	4.45	3.64	3.30	3.42	3.69	4.04	4.48	4.74	4.87	4.99	4.99	5.12	5.33	5.29	4.99	4.76	4.87	5.17	5.37	5.67	5.97	6.27	6.51	6.40	6.10	5.83	6.18	6.42	6.77	7.02	7.89	8.32	8.77	8.82	8.84	9.13	9.76	10.95	12.60	14.13	16.18	19.21	21.88	22.73	21.69	19.19	16.86	15.11	13.19	11.04	9.35	8.37	7.72	8.21	8.51	8.57	8.52	8.42	8.23	6.15	6.46	7.45	8.92	10.38	11.07	10.65	9.76	8.83	8.82	9.72	10.61	10.96	10.99	10.78	10.61	10.36	10.45	11.43	10.78	10.66	8.63	5.77	5.77
4.07	4.25	4.48	4.50	5.10	4.60	4.72	5.16	6.15	5.63	5.59	5.58	5.60	5.50	5.45	6.32	6.73	7.23	7.84	8.63	9.59	11.08	13.28	13.99	11.34	9.66	9.74	9.10	6.51	4.42	3.97	3.80	4.08	3.90	4.35	3.91	3.77	4.08	4.57	5.59	6.92	8.14	9.43	14.04	12.51	5.93	5.07	4.75	4.38	4.53	4.30	4.39	4.26	4.03	3.86	3.49	4.13	5.33	7.34	9.27	9.84	9.32	8.72	8.11	7.04	6.60	6.57	6.66	7.10	7.63	8.07	8.33	7.72	6.43	5.07	4.05	3.49	3.41	3.53	3.71	4.13	4.52	4.67	4.84	4.94	5.11	5.36	5.48	5.22	4.82	4.89	5.19	5.34	5.40	5.46	5.75	6.07	6.07	5.86	5.65	5.59	5.76	6.55	6.91	7.09	7.84	8.30	8.72	8.79	8.96	9.47	10.32	11.67	13.04	14.49	17.12	20.01	21.95	21.83	20.58	18.46	16.52	14.17	11.38	9.23	8.27	8.49	8.22	8.59	8.39	8.50	8.58	6.39	6.44	6.64	6.91	7.87	9.36	10.70	10.84	10.12	9.11	8.87	9.45	10.19	10.64	10.83	10.68	10.59	10.45	10.51	11.56	11.28	10.83	7.96	4.93	4.93
3.97	4.08	4.23	4.36	4.48	4.61	4.72	5.13	6.00	5.48	5.51	5.45	5.39	5.34	6.17	6.18	5.67	6.94	7.61	8.09	8.93	10.65	12.75	13.16	11.79	10.64	10.12	8.71	6.25	4.40	4.76	4.35	3.78	3.71	4.15	3.46	3.39	3.74	4.22	5.21	6.29	7.15	8.57	13.98	12.55	6.87	5.55	5.05	4.89	4.54	4.31	4.35	4.20	4.02	3.99	3.45	4.00	4.83	6.82	9.14	10.26	9.69	9.32	8.46	7.13	6.37	6.54	7.05	7.44	7.68	7.61	7.51	7.53	6.90	5.63	4.52	3.77	3.53	3.54	3.60	3.88	4.26	4.48	4.65	4.84	5.19	5.39	5.51	5.43	4.96	4.96	5.30	5.40	5.27	5.07	5.28	5.66	5.75	5.61	5.46	5.44	5.60	6.01	6.83	7.02	6.98	7.74	8.30	8.69	8.74	9.09	9.66	10.61	11.92	13.10	14.96	17.68	20.17	21.83	21.12	19.92	17.91	15.25	12.05	9.58	8.34	8.38	8.15	7.94	8.60	8.66	8.68	6.61	6.85	7.17	7.27	7.63	8.57	9.89	10.64	10.11	9.16	9.02	9.39	9.87	10.33	10.60	10.54	10.54	10.48	10.51	11.52	11.58	11.03	7.73	4.68	4.68
3.88	3.85	4.03	4.33	4.39	4.55	4.71	5.05	5.31	5.34	5.40	5.39	5.32	6.08	5.44	5.40	5.52	6.02	6.70	7.90	8.65	10.34	12.31	13.03	12.11	11.34	10.47	8.34	5.89	4.48	4.84	4.42	3.89	3.96	4.25	4.29	2.84	3.30	4.07	4.61	5.43	6.02	9.06	13.48	11.28	6.91	5.85	5.75	5.10	4.56	4.41	4.23	4.03	3.98	4.14	4.45	3.84	4.58	6.19	8.77	10.62	10.38	9.55	8.97	7.63	6.47	6.39	7.09	7.73	7.83	7.30	6.73	7.13	7.34	6.31	5.05	4.11	3.72	3.71	3.70	3.79	4.12	4.38	4.51	4.79	5.34	5.66	5.56	5.43	5.03	4.93	5.37	5.61	5.36	4.85	4.84	5.33	5.50	5.34	5.21	5.29	5.57	6.04	6.88	6.98	6.87	6.68	7.70	8.42	8.56	8.69	9.10	9.64	10.60	11.74	13.09	15.28	17.98	20.38	21.59	20.66	18.82	15.98	12.96	10.68	9.02	8.53	8.16	8.65	8.69	8.90	6.92	7.08	7.53	7.84	8.02	8.11	8.47	9.53	10.11	9.72	9.11	9.17	9.44	9.72	10.06	10.39	10.38	10.41	10.45	10.50	11.37	11.59	11.08	8.06	5.18	5.18
3.69	3.80	4.25	4.37	4.38	4.26	4.68	4.93	5.02	5.13	5.19	5.23	5.23	5.43	5.40	5.31	5.49	6.03	6.66	7.75	8.42	9.97	11.77	13.26	12.47	11.82	10.78	8.34	5.69	4.44	4.89	4.45	3.94	4.12	3.88	3.80	2.54	2.55	3.23	4.21	4.69	5.22	9.77	12.97	9.70	6.60	5.90	5.83	5.24	4.72	4.62	4.33	4.03	4.02	4.09	4.41	3.69	4.47	5.91	8.16	10.64	10.78	10.04	9.46	8.62	7.38	6.77	7.11	7.51	7.53	6.90	6.14	5.96	7.45	7.15	5.79	4.54	4.00	3.96	3.90	3.86	4.12	4.31	4.49	4.86	5.50	6.17	6.05	5.46	4.90	4.70	5.16	5.73	5.64	4.84	4.46	5.04	5.32	4.98	4.76	4.92	5.47	6.57	7.05	6.98	6.73	6.44	7.12	7.90	8.33	8.34	8.66	9.04	9.57	10.47	11.66	13.27	15.77	18.52	20.82	22.07	19.77	15.81	12.91	11.36	9.80	9.02	8.33	8.74	8.72	8.75	7.01	7.55	8.04	8.41	8.63	8.69	8.76	9.14	9.39	9.14	8.97	9.23	9.50	9.73	10.00	10.26	10.25	10.28	10.38	10.49	11.11	11.42	10.85	8.36	5.96	5.96
3.54	3.68	3.99	4.39	4.22	4.27	4.68	4.65	4.82	4.90	4.96	5.00	5.26	5.26	5.16	5.27	5.48	6.03	6.67	7.69	8.28	9.65	11.26	13.15	12.80	12.14	10.95	8.68	5.65	4.24	4.85	4.50	3.88	3.93	3.37	3.11	3.01	1.61	2.33	3.79	4.20	5.40	11.66	13.11	8.47	6.54	5.62	5.08	5.39	4.16	4.75	3.69	4.03	3.99	3.95	4.56	3.41	4.29	5.44	7.55	9.97	10.72	10.30	9.96	9.61	9.12	8.26	7.68	7.22	6.82	6.18	5.43	5.76	6.88	7.23	6.63	5.23	4.46	4.23	4.10	4.02	4.20	4.32	4.57	4.96	5.56	6.70	7.00	6.03	4.82	4.38	4.70	5.42	5.84	5.16	4.46	4.99	5.34	4.73	4.22	4.27	5.04	6.13	7.25	7.12	6.60	6.22	6.05	7.17	7.08	7.18	8.14	8.55	8.90	9.55	10.59	11.77	13.83	16.61	19.65	22.86	20.80	15.57	12.19	11.09	9.89	9.23	8.44	8.74	8.67	8.15	6.77	7.47	8.21	8.81	9.12	9.06	8.86	8.85	8.93	8.85	8.86	9.13	9.44	9.77	10.04	10.21	10.20	10.26	10.38	10.51	10.83	11.14	10.81	8.41	6.56	6.56
3.45	3.56	3.85	4.09	4.21	4.31	4.67	4.58	4.65	4.68	5.00	5.06	4.85	4.91	5.03	5.17	5.51	6.05	7.34	7.72	8.46	9.54	10.89	12.78	13.03	12.38	11.03	9.01	5.73	4.02	4.80	4.56	4.04	3.84	3.35	2.99	2.60	0.83	1.27	2.59	3.48	5.64	12.38	12.47	7.92	6.58	5.56	4.93	5.39	4.17	3.93	3.62	3.36	3.85	3.99	4.83	3.09	3.71	4.59	6.82	9.63	10.18	10.19	10.05	10.40	10.66	10.19	8.92	7.18	6.11	5.51	4.73	4.71	5.85	6.89	6.74	5.92	5.09	4.59	4.29	4.14	4.24	4.44	4.81	5.03	5.53	6.90	7.90	7.31	5.52	4.23	4.04	4.67	5.57	5.55	4.89	5.26	5.67	4.87	3.83	3.65	4.54	5.85	7.32	7.38	6.62	6.04	5.41	5.54	6.21	6.86	7.04	8.19	8.45	9.05	9.92	10.80	12.30	14.70	18.34	23.27	21.98	15.97	11.76	10.55	9.53	9.14	8.48	8.72	8.36	6.38	6.67	7.37	8.31	9.19	9.43	9.12	8.73	8.64	8.81	8.94	8.96	9.07	9.34	9.70	9.98	10.16	10.23	10.34	10.43	10.45	10.59	10.34	10.10	8.49	7.27	7.27
3.41	3.50	3.73	3.98	4.17	4.32	4.70	4.81	4.61	4.58	4.66	4.77	4.82	4.87	4.98	5.13	5.50	6.06	7.37	7.79	8.64	9.63	10.69	12.42	13.18	12.66	11.41	9.45	5.73	3.75	3.50	3.38	4.50	3.97	3.50	3.05	2.62	2.23	0.81	2.01	2.76	6.20	12.12	11.78	8.21	6.94	5.57	4.69	3.85	3.49	3.88	3.60	3.36	3.81	4.16	3.07	3.09	3.25	4.07	6.24	8.85	9.59	9.49	9.26	9.64	10.91	11.89	10.52	7.70	5.76	5.20	4.54	4.19	5.46	5.64	6.10	6.00	5.53	4.99	4.50	4.22	4.27	4.59	5.01	5.12	5.48	6.85	8.32	8.72	7.17	4.90	3.81	3.77	4.82	5.47	5.29	5.57	6.06	5.35	3.69	3.45	4.17	5.46	6.78	7.63	7.31	5.70	5.14	4.91	5.34	6.10	6.75	7.86	8.14	8.71	9.47	10.18	11.36	13.33	16.92	23.09	23.09	16.95	11.78	10.08	9.45	8.41	9.50	8.69	7.93	6.30	6.98	7.63	8.64	9.56	9.41	8.77	8.51	8.54	8.80	9.13	9.19	9.21	9.32	9.56	9.83	10.08	10.24	10.46	10.47	10.27	9.67	9.60	9.08	8.43	7.83	7.83
3.40	3.48	3.61	3.84	4.11	4.28	4.46	4.64	4.65	4.62	4.67	4.77	4.84	4.89	4.96	5.19	5.52	6.74	7.39	7.99	8.77	9.73	10.66	12.09	13.07	13.14	12.29	10.29	5.97	3.51	3.27	4.65	4.56	4.33	3.84	3.03	2.83	2.45	1.94	1.79	3.07	6.64	11.21	10.95	8.77	7.39	5.66	4.01	3.47	3.71	3.52	3.34	3.14	3.55	4.21	3.08	3.15	3.29	4.14	6.14	8.59	9.39	8.85	8.62	8.80	10.91	12.76	11.80	8.64	6.00	5.25	4.64	4.09	4.31	5.01	5.38	5.48	6.17	5.26	4.71	4.29	4.30	4.63	5.01	5.13	5.36	6.41	7.93	9.49	9.01	6.75	4.45	3.48	3.90	4.98	5.48	5.82	6.29	5.83	3.82	2.93	3.90	5.26	6.83	8.10	6.99	6.42	4.99	4.55	4.64	5.40	6.32	6.79	7.95	8.47	9.13	9.79	10.74	12.50	15.77	22.26	23.58	18.46	12.19	9.74	8.78	9.94	8.35	7.63	6.83	6.11	6.91	7.85	8.99	9.75	9.01	8.56	8.47	8.42	8.85	9.31	9.49	9.47	9.35	9.41	9.68	10.01	10.34	10.66	10.65	9.90	9.41	8.54	7.89	7.88	8.04	8.04
3.47	3.57	3.62	3.76	4.03	4.22	4.41	4.60	4.64	4.65	4.69	4.80	4.88	5.05	5.07	5.15	6.10	6.82	7.53	8.10	8.85	9.76	10.67	11.70	12.81	13.34	13.34	11.50	7.04	3.76	4.43	4.55	4.71	4.71	4.29	3.49	3.28	3.19	2.94	2.29	3.83	6.94	9.42	9.93	9.20	7.95	5.86	3.95	3.25	3.23	2.97	2.88	3.28	3.38	4.45	2.81	3.06	3.36	4.37	6.23	8.58	9.31	8.74	8.18	8.22	9.70	12.12	12.34	9.47	6.79	5.67	4.81	4.26	4.29	4.71	4.85	4.81	5.14	5.27	4.89	4.42	4.37	4.62	4.95	4.96	5.23	5.81	7.03	8.67	9.96	9.02	6.52	4.14	3.53	4.33	5.54	6.15	6.61	6.20	4.12	2.82	3.68	5.24	6.41	7.70	7.56	6.17	5.05	4.58	4.44	5.04	5.93	6.53	7.85	8.37	8.90	9.50	10.33	12.11	15.03	20.88	24.39	20.01	13.07	9.80	8.77	8.41	9.28	8.64	6.67	5.91	6.60	7.88	9.15	9.42	8.79	8.19	8.62	8.23	8.95	9.49	9.77	9.76	9.47	9.37	9.50	9.96	10.48	10.89	10.20	9.85	8.64	7.35	6.28	6.55	7.24	7.24
3.54	3.70	3.80	3.84	4.03	4.21	4.41	4.57	4.61	4.61	4.83	4.94	5.05	5.06	5.05	5.67	6.06	6.78	7.44	8.12	8.89	9.81	10.66	11.36	12.24	13.09	13.96	12.79	8.76	4.68	3.80	4.79	4.96	5.24	5.18	4.55	3.97	3.84	3.65	2.84	4.63	6.88	7.94	8.99	9.40	8.47	6.17	4.17	3.34	3.01	3.49	3.31	3.31	3.40	4.14	2.57	2.87	3.32	4.49	6.21	8.45	9.64	9.27	8.43	8.10	9.84	12.43	12.42	9.95	7.78	6.53	5.25	4.64	4.65	4.82	4.56	4.17	4.53	4.99	4.95	4.61	4.54	4.64	4.87	5.01	5.19	5.52	6.44	7.75	9.14	10.03	8.76	5.96	3.94	4.10	5.41	6.50	7.09	6.80	4.62	2.65	3.18	4.76	5.96	7.28	8.36	6.96	5.24	4.71	5.35	5.00	5.65	6.30	7.74	8.33	8.93	9.46	10.27	12.09	14.59	19.49	23.92	21.03	14.31	10.37	8.72	8.09	7.95	7.54	6.67	6.14	6.70	8.20	9.36	8.89	8.63	8.12	7.91	7.95	8.94	9.60	9.97	9.98	9.68	9.41	9.47	10.02	10.65	11.23	10.26	9.37	8.91	7.05	4.95	4.96	5.54	5.54
3.52	3.74	3.94	3.98	4.10	4.22	4.41	4.55	4.60	4.57	4.75	4.78	4.90	4.98	5.57	5.65	5.99	6.60	7.23	7.96	8.82	9.82	10.60	11.10	11.67	12.68	13.79	13.75	10.72	6.28	4.80	4.45	4.39	4.68	4.64	4.23	4.92	4.43	2.99	3.20	5.01	6.83	7.12	8.29	9.57	8.83	6.34	4.49	3.71	3.04	3.52	3.57	3.39	3.33	3.92	2.35	2.47	2.92	4.20	5.82	7.83	9.52	10.02	9.10	8.36	9.68	12.02	12.21	10.07	8.54	7.74	6.26	5.35	5.28	5.27	4.55	3.67	3.73	4.41	4.70	4.67	4.72	4.81	4.91	4.97	5.37	5.71	6.35	7.20	8.27	9.50	9.79	7.87	5.28	4.51	5.24	6.32	7.53	7.39	5.59	3.11	2.84	4.00	4.98	6.40	8.60	8.09	5.77	4.93	4.99	5.81	5.52	6.72	7.56	8.26	8.78	9.45	10.32	12.00	13.82	17.83	23.00	21.87	16.54	12.12	9.36	8.20	7.88	7.56	7.11	6.71	7.29	8.71	9.33	9.00	8.29	8.11	7.83	7.86	8.78	9.52	10.01	10.15	9.88	9.53	9.61	10.19	11.14	10.79	8.92	7.91	9.49	9.20	6.78	5.54	5.64	5.64
3.48	3.70	3.94	4.01	4.11	4.19	4.37	4.48	4.55	4.82	4.70	4.60	4.63	4.72	5.42	5.55	5.86	6.36	6.95	7.70	8.59	9.61	10.42	10.93	11.39	12.24	13.68	14.06	12.36	8.78	5.94	4.58	4.27	4.62	4.77	4.54	4.36	5.05	4.64	4.44	5.29	6.42	6.55	7.80	9.68	8.94	6.40	4.96	4.18	3.30	3.51	3.34	3.32	3.18	3.72	2.64	1.88	2.18	3.20	5.16	6.94	8.77	10.25	9.76	8.94	9.77	11.78	11.91	10.06	8.82	8.60	7.49	6.39	6.12	5.95	4.91	3.46	3.11	3.50	4.63	4.33	4.62	4.91	5.03	5.14	5.39	5.92	6.44	6.98	7.68	8.77	10.00	9.12	6.96	5.44	5.50	6.32	7.24	7.62	6.57	4.22	2.94	3.54	4.15	5.05	7.59	8.93	7.06	5.46	5.39	5.80	5.51	6.61	7.37	8.14	8.76	9.42	10.41	11.81	13.05	15.90	21.20	22.36	20.50	16.75	12.13	9.22	8.22	7.68	7.30	7.28	7.87	8.85	9.11	8.97	8.24	7.96	8.10	7.99	8.73	9.41	10.02	10.27	10.03	9.70	9.79	10.50	10.75	10.36	6.85	5.83	8.30	9.81	8.95	7.49	6.52	6.52
3.44	3.65	3.86	3.94	4.03	4.08	4.27	4.36	4.42	4.49	4.46	4.56	4.48	4.48	5.17	5.36	5.61	6.05	6.68	7.42	8.26	9.18	9.97	10.59	11.13	11.97	13.39	13.52	13.14	11.49	8.94	5.88	4.32	4.30	4.51	4.50	4.54	4.42	3.96	4.02	5.03	5.93	6.05	7.33	9.64	8.71	6.18	5.47	4.70	3.55	3.35	3.04	3.15	3.42	3.83	2.26	2.01	1.67	2.47	4.40	6.19	7.84	9.80	10.17	8.87	9.77	11.52	11.50	9.96	8.84	8.86	8.33	7.52	7.13	6.87	5.62	3.74	2.89	2.94	4.02	4.25	4.78	4.70	4.98	5.04	5.26	5.90	6.50	6.99	7.47	8.11	9.20	9.45	8.12	6.86	6.40	6.78	7.55	7.65	7.18	5.37	3.75	3.72	3.99	3.95	5.80	8.66	8.33	6.71	6.30	5.69	5.56	6.69	7.37	8.05	8.79	9.53	10.70	11.83	12.44	14.00	17.94	21.67	22.93	21.24	17.43	12.39	9.72	8.49	7.82	7.78	8.11	8.58	9.20	8.95	8.42	8.04	7.86	8.18	8.78	9.39	10.03	10.39	10.28	9.98	10.07	10.31	11.02	9.56	6.31	4.92	6.30	7.88	7.75	7.20	6.52	6.52
3.39	3.59	3.78	3.87	3.96	3.97	4.17	4.24	4.24	4.35	4.41	4.59	4.53	4.44	4.44	5.20	5.38	5.76	6.51	7.24	7.89	8.62	9.34	10.03	10.61	11.41	12.62	12.54	12.91	12.45	11.47	9.81	7.38	5.44	4.72	4.59	4.53	4.47	4.23	4.41	5.04	5.31	5.18	6.71	9.34	8.51	6.13	7.47	5.04	3.67	3.30	3.40	3.47	3.76	4.01	2.11	1.40	1.51	2.08	3.71	5.48	7.17	9.29	10.24	8.87	9.41	11.07	10.96	9.74	8.96	8.97	8.73	8.39	8.15	7.87	6.57	4.45	3.24	2.86	2.81	3.67	4.08	4.20	4.70	4.87	5.10	5.72	6.45	7.03	7.52	7.93	8.57	9.11	8.42	7.64	7.22	7.45	7.80	7.82	7.49	6.13	4.79	4.44	4.33	3.88	4.54	7.35	8.94	8.07	7.38	6.69	6.31	6.61	7.15	7.74	8.61	9.43	10.68	11.75	12.08	12.86	15.16	18.12	20.58	22.20	20.75	16.91	12.80	10.34	9.01	8.50	8.54	8.84	9.03	8.93	8.60	8.26	7.81	8.43	8.96	9.49	10.15	10.63	10.74	10.28	10.22	10.26	9.78	8.17	5.83	4.77	5.53	6.02	5.97	6.13	5.84	5.84
3.34	3.55	3.71	3.82	3.95	3.95	4.18	4.25	4.14	4.18	4.26	4.54	4.58	4.54	5.02	5.25	5.39	5.74	6.48	7.13	7.62	8.12	8.76	9.51	10.14	10.82	11.70	11.40	11.80	11.86	11.77	11.60	10.63	8.83	7.18	5.88	5.01	4.64	4.64	4.92	5.14	5.14	4.85	5.95	8.42	7.81	6.35	6.18	6.63	4.93	3.65	3.82	3.81	3.84	4.32	3.26	1.66	1.53	1.77	3.23	4.86	6.44	8.72	10.30	8.96	9.13	10.59	10.37	9.47	9.09	9.17	8.96	8.83	8.88	8.65	7.44	5.31	3.97	3.25	2.78	2.57	3.59	3.48	4.24	4.59	4.67	5.44	6.24	6.98	7.59	8.09	8.41	8.68	8.68	7.87	7.71	7.77	8.26	8.36	7.60	6.53	5.27	4.92	4.84	4.60	4.67	6.15	7.90	8.66	8.47	7.80	6.86	6.68	6.93	7.26	8.09	9.01	10.19	11.26	11.74	12.31	13.81	15.90	17.53	19.29	20.72	19.32	16.43	12.93	10.43	9.29	8.92	8.92	8.99	8.94	8.69	8.44	8.06	8.68	9.17	9.65	10.38	11.09	11.44	11.48	10.34	8.95	7.97	6.62	4.92	4.57	5.31	5.64	5.88	5.72	5.37	5.37
3.31	3.53	3.69	3.79	3.95	4.00	4.25	4.36	4.20	4.13	4.14	4.35	4.45	4.51	5.13	5.45	5.68	6.01	6.60	7.02	7.32	7.66	8.27	9.12	9.81	10.38	10.96	11.56	10.81	10.93	10.93	11.12	11.26	10.69	9.66	8.47	7.24	6.26	5.84	5.71	5.62	5.62	5.25	6.22	7.04	6.69	6.42	7.78	6.87	5.09	4.11	4.19	3.97	4.03	4.77	3.19	3.03	3.36	3.39	2.77	4.52	5.74	7.61	9.60	9.23	8.68	9.46	9.68	9.04	8.96	9.14	8.99	9.02	9.42	9.33	8.12	6.26	4.77	3.85	3.07	2.58	3.36	3.78	4.40	4.17	4.50	5.10	5.90	6.70	7.46	8.18	8.60	8.58	8.57	8.03	7.62	7.84	8.57	8.85	8.27	7.06	5.39	4.51	4.93	5.12	5.35	6.06	7.15	7.80	8.14	8.69	7.85	7.26	6.89	6.94	7.54	8.45	9.29	10.15	10.99	11.74	12.87	14.45	15.63	16.70	18.28	19.37	18.22	15.51	11.75	9.94	9.37	9.09	9.05	8.96	8.80	8.38	8.38	8.82	9.29	9.79	10.66	11.71	12.51	12.16	9.35	6.83	6.61	5.78	4.37	4.62	5.01	5.71	5.96	5.74	5.62	5.62
3.29	3.53	3.70	3.79	3.94	4.01	4.28	4.43	4.32	4.22	4.18	4.28	4.33	4.39	5.00	5.45	5.92	6.37	6.88	7.17	7.32	7.57	8.23	8.98	9.55	9.96	10.29	10.49	10.34	10.23	10.23	10.42	10.75	10.80	10.50	10.03	9.39	8.88	8.34	7.57	7.21	6.95	6.18	5.32	5.40	5.71	6.32	7.97	7.20	5.65	4.42	4.41	4.17	4.19	4.56	2.63	3.29	4.63	2.60	3.24	4.41	5.46	6.79	8.89	9.38	8.90	8.94	9.09	8.65	8.60	8.89	8.81	8.97	9.65	9.82	8.80	7.26	5.66	4.43	3.53	2.89	2.56	3.48	3.08	3.68	4.09	4.69	5.47	6.23	7.04	7.97	8.73	8.74	8.65	8.38	7.51	7.50	8.42	9.18	8.92	7.57	5.92	4.28	3.76	4.19	4.98	6.00	6.90	7.28	7.63	8.84	8.67	8.10	7.33	6.87	7.13	8.00	8.54	8.98	9.79	10.72	11.78	13.16	14.43	15.27	16.18	17.57	19.32	16.82	13.21	10.49	9.74	9.33	9.25	9.10	8.96	8.57	8.74	9.00	9.40	9.96	10.90	12.24	13.58	12.25	7.98	5.58	5.20	4.63	4.05	4.40	4.69	5.74	5.95	5.90	6.62	6.62
3.27	3.51	3.69	3.77	3.92	3.99	4.27	4.45	4.39	4.31	4.36	4.35	4.36	4.81	4.99	5.39	5.92	6.53	7.19	7.78	8.17	8.31	8.55	8.97	9.32	9.47	9.63	9.80	9.82	9.57	9.66	9.86	10.24	10.51	10.47	10.26	9.95	10.06	10.16	9.87	9.50	9.05	7.40	4.78	4.35	5.04	7.18	8.41	7.56	5.89	4.63	4.41	4.32	4.33	4.26	2.50	3.41	5.02	4.36	3.54	4.35	5.22	6.44	8.25	9.05	8.61	8.40	8.60	8.43	8.37	8.63	8.66	8.86	9.61	9.95	9.37	8.16	6.62	5.03	3.98	3.32	2.77	2.54	3.51	3.08	4.32	4.29	5.04	5.74	6.43	7.41	8.55	8.87	8.80	8.44	7.63	7.19	8.01	9.85	9.62	8.64	6.86	4.67	3.13	2.89	3.35	4.73	6.19	6.60	6.84	7.29	8.45	7.42	7.57	6.89	6.98	7.69	8.13	8.25	8.78	9.61	10.60	12.01	13.57	14.43	14.96	16.08	18.69	18.43	14.89	11.16	9.99	9.69	9.63	9.47	9.10	9.02	9.09	9.18	9.49	10.12	11.08	12.56	14.03	11.90	7.71	5.42	5.26	4.37	4.43	4.46	4.42	5.85	6.48	6.78	7.78	7.78
3.24	3.47	3.63	3.73	3.87	3.95	4.26	4.44	4.56	4.44	4.36	4.34	4.89	5.00	5.11	5.34	5.79	6.43	7.13	7.92	8.49	8.68	8.71	8.91	9.06	9.09	9.17	9.32	9.44	9.37	9.35	9.37	9.73	10.12	10.25	10.20	9.94	9.98	10.39	10.69	10.99	10.84	8.47	4.66	4.29	5.97	6.83	6.76	7.95	6.16	4.60	4.25	4.18	4.29	3.85	2.50	3.98	4.96	4.79	4.92	4.02	4.76	6.04	7.79	8.62	8.22	7.88	8.08	8.08	8.21	8.43	8.56	8.80	9.43	9.87	9.64	8.97	7.68	5.83	4.44	3.76	3.12	2.59	2.51	3.54	3.94	3.96	4.70	5.31	5.84	6.70	8.06	8.86	8.73	8.49	7.87	7.01	7.30	8.99	10.63	9.50	7.98	5.55	3.44	2.39	2.32	3.07	4.73	5.75	6.08	6.74	7.28	7.36	7.09	7.41	7.25	7.68	7.94	7.89	8.15	8.81	9.71	11.13	12.79	13.74	14.25	15.16	17.55	19.25	16.64	12.47	10.45	10.19	10.24	10.01	9.79	9.66	9.53	9.26	9.52	10.22	11.21	12.64	13.83	12.08	8.46	6.20	5.69	4.41	4.76	4.82	4.78	6.51	7.57	7.46	7.69	7.69
3.23	3.44	3.56	3.65	3.78	3.87	4.18	4.60	4.57	4.45	4.30	4.23	4.16	4.85	4.96	5.13	5.44	5.91	6.34	6.92	7.92	8.52	8.77	8.89	8.82	8.73	8.82	8.91	8.98	9.10	9.23	9.30	9.58	9.65	9.92	10.05	9.91	9.84	10.18	10.79	11.87	12.06	9.09	4.92	4.46	4.94	5.41	7.38	6.62	6.47	4.63	4.11	4.08	4.20	3.62	2.67	4.30	4.82	5.43	5.23	4.90	3.78	5.21	7.35	8.07	7.78	7.53	7.62	7.64	7.82	8.24	8.44	8.79	9.30	9.66	9.63	9.49	8.75	7.04	5.19	4.23	3.61	2.94	2.55	2.55	3.72	3.53	4.46	4.99	5.40	6.00	7.30	8.58	8.91	8.66	7.97	7.17	6.90	7.99	9.82	11.02	9.21	6.68	4.13	2.68	2.37	2.57	3.46	4.64	5.41	6.20	7.05	7.37	8.21	7.73	7.33	7.67	7.84	7.72	7.86	8.42	9.28	10.49	11.93	13.02	13.84	14.77	16.42	18.65	17.67	14.58	11.73	11.14	10.92	10.90	10.80	10.50	9.83	9.45	9.61	10.41	11.40	12.12	12.59	12.47	10.18	7.52	6.25	4.65	5.12	5.35	6.28	7.31	7.57	7.34	5.20	5.20
3.22	3.41	3.47	3.55	3.67	3.73	4.04	4.50	4.54	4.51	4.36	4.23	4.12	4.71	4.77	4.90	5.14	5.31	5.55	6.07	6.86	7.93	8.69	9.02	8.75	8.47	8.58	8.61	8.48	8.61	9.07	9.49	9.80	10.07	10.10	9.78	9.84	9.85	10.16	10.93	12.76	13.42	9.62	4.97	4.68	5.80	5.07	7.33	7.62	6.92	5.00	4.23	3.99	4.11	3.39	2.81	4.24	4.92	6.22	6.01	4.93	4.11	4.54	6.52	7.45	8.29	7.09	7.23	7.12	7.37	7.96	8.40	8.69	9.12	9.34	9.37	9.46	9.33	8.24	6.39	4.87	4.13	3.51	2.93	2.63	3.58	3.38	4.33	4.83	5.15	5.44	6.32	7.80	8.76	8.97	8.38	7.77	6.94	6.92	8.73	10.50	10.47	7.94	4.94	3.07	2.61	2.90	3.27	3.78	4.50	5.55	6.66	7.57	8.39	7.97	7.56	7.71	7.86	7.79	7.90	8.38	9.12	9.94	10.87	11.89	12.99	14.50	15.87	17.53	18.87	16.72	13.97	12.36	12.12	12.09	12.05	11.53	10.35	9.62	10.47	10.77	11.73	10.82	10.21	11.63	11.20	8.60	6.32	5.33	5.74	6.62	6.87	7.20	7.49	7.20	7.36	7.36
3.24	3.40	3.41	3.46	3.57	3.60	3.88	4.34	4.39	4.45	4.95	4.91	4.15	4.06	4.79	4.95	5.08	5.13	5.32	5.50	5.90	7.07	8.28	9.11	8.95	8.52	8.54	8.49	8.41	8.84	8.33	9.22	9.48	10.09	10.28	10.38	10.22	10.36	10.97	11.90	14.20	15.13	11.18	5.36	4.89	5.17	5.53	6.37	6.80	6.09	5.53	4.51	4.15	3.97	3.52	2.81	4.11	5.08	6.90	6.63	4.71	4.11	4.04	6.00	7.92	8.06	7.94	8.33	6.38	6.63	7.53	8.13	8.52	8.95	9.06	9.10	9.25	9.33	8.87	7.51	5.73	4.62	3.99	3.42	2.95	2.90	3.41	4.37	4.93	5.14	5.12	5.44	6.55	7.93	8.68	8.85	8.30	7.22	6.53	7.37	9.86	11.44	9.02	5.86	3.43	2.78	3.37	3.97	3.94	3.88	4.55	6.01	8.14	9.01	8.31	7.82	7.96	8.07	8.07	8.13	8.54	9.23	9.72	10.08	10.71	11.65	13.61	15.18	16.25	18.25	18.11	17.01	15.35	14.24	13.60	13.54	12.81	11.20	10.32	10.53	11.34	11.24	8.88	7.88	9.90	10.48	8.76	6.84	6.25	6.60	6.87	7.16	7.25	7.52	5.21	5.23	5.23
3.31	3.43	3.39	3.42	3.53	3.52	3.75	3.91	4.18	4.19	4.16	4.77	4.76	4.10	4.92	5.08	5.16	5.22	5.18	5.10	5.29	6.10	7.57	8.82	8.94	8.54	8.58	8.72	8.65	8.34	8.60	9.16	9.31	9.51	9.71	10.06	10.46	10.85	11.21	12.27	13.03	16.08	14.88	8.10	5.66	5.64	4.41	4.78	7.34	8.09	6.22	4.47	4.11	3.89	3.75	2.85	4.12	5.29	7.33	6.95	4.87	4.29	3.97	5.65	7.43	7.88	7.78	5.86	5.71	7.99	6.80	7.72	8.24	8.71	8.81	8.83	9.03	9.17	9.00	8.27	6.81	5.28	4.44	3.88	3.34	3.96	3.54	4.52	5.26	5.37	5.07	5.02	5.50	6.59	7.88	8.61	8.60	7.48	6.77	6.92	9.33	11.57	9.73	6.83	4.01	2.75	3.20	4.62	4.96	4.16	3.70	4.46	6.52	9.01	8.96	8.22	7.92	7.81	8.11	8.36	8.86	9.55	9.84	9.97	10.47	11.26	12.57	13.49	14.18	15.95	18.16	19.29	18.15	17.14	16.10	15.46	14.43	12.32	11.26	11.36	11.29	9.87	7.36	6.97	8.28	8.78	8.37	7.55	7.29	6.85	6.99	7.54	5.93	7.67	5.35	5.38	5.38
3.40	3.48	3.41	3.44	3.57	3.57	3.73	3.80	3.95	3.91	3.99	4.64	4.02	4.09	4.93	5.02	5.14	5.06	4.96	4.95	4.98	5.42	6.85	8.41	8.82	8.55	8.38	8.35	8.07	7.94	8.25	8.88	9.12	9.39	9.60	10.04	10.24	10.68	11.07	11.69	13.38	14.99	16.86	14.17	9.25	7.38	5.24	4.52	6.42	8.25	8.21	4.75	3.99	3.83	3.71	3.18	4.41	5.83	7.46	7.09	5.29	4.80	4.39	6.29	7.49	5.17	5.34	7.70	7.27	5.38	6.35	7.17	7.95	8.56	8.58	8.41	8.66	8.88	8.73	8.50	7.72	6.31	5.07	4.37	3.73	3.43	3.65	4.57	5.56	5.90	5.51	5.14	5.09	5.53	6.69	7.89	8.53	8.39	7.49	7.16	8.98	10.67	10.05	7.65	4.89	2.81	2.69	4.25	5.55	5.05	3.67	3.43	4.85	6.91	7.71	7.52	7.34	7.80	7.95	8.38	9.15	9.98	10.31	10.51	10.75	10.91	11.17	11.51	11.98	13.09	14.45	16.18	18.24	18.85	18.24	18.05	16.57	13.69	12.30	11.87	10.41	9.80	8.12	8.08	8.46	8.24	8.25	8.08	7.53	6.98	7.23	5.91	6.23	7.68	7.38	7.69	7.69
3.44	3.51	3.44	3.47	3.65	3.66	3.76	3.96	4.11	3.78	3.92	4.00	4.01	4.13	4.91	4.92	4.18	4.24	4.97	4.99	4.90	5.04	6.26	7.87	8.61	8.26	7.80	7.49	7.72	7.65	7.93	8.48	8.96	9.33	9.56	9.65	9.83	10.34	10.74	11.29	12.50	14.14	16.50	16.77	14.95	12.01	7.41	3.31	5.48	7.38	8.07	4.86	3.85	3.79	3.52	3.47	4.87	6.06	7.28	7.02	5.87	5.39	5.85	6.91	7.11	6.93	6.97	6.80	6.57	4.85	6.82	7.84	7.21	8.40	8.54	8.09	8.17	8.46	8.27	8.14	8.02	7.16	5.81	4.84	4.17	3.77	3.82	4.53	5.54	6.29	6.37	5.78	5.20	5.07	5.75	6.87	7.86	8.54	8.50	7.62	9.33	11.13	10.16	8.30	5.94	3.53	2.60	3.55	5.15	5.64	4.51	3.68	4.17	5.42	6.25	6.53	6.72	7.42	7.72	7.98	8.81	9.93	10.52	10.42	10.01	9.84	9.98	10.03	10.40	10.97	11.59	12.29	13.73	15.92	17.89	19.88	18.81	15.89	13.42	12.53	10.35	9.27	8.24	7.88	8.06	7.98	7.90	8.01	7.45	6.85	7.28	5.54	5.93	7.45	7.29	7.40	7.40
3.43	3.53	3.45	3.46	3.67	3.68	3.90	3.71	3.58	3.52	3.92	3.96	4.02	4.15	4.17	4.11	4.13	5.01	5.13	5.11	4.94	4.94	5.88	7.31	8.02	7.72	7.30	7.27	7.38	7.40	7.60	8.08	8.49	8.76	9.01	9.19	9.50	9.98	10.27	10.78	11.40	12.33	13.97	15.32	16.46	16.75	13.11	5.00	4.26	6.53	8.56	7.24	3.84	3.83	3.65	4.20	5.23	6.34	7.07	6.92	6.20	5.94	6.45	7.06	6.75	6.30	6.29	6.39	6.26	6.31	6.99	7.19	7.05	7.61	8.34	8.05	7.89	7.92	7.61	7.49	7.76	7.52	6.57	5.55	4.84	4.33	4.18	4.48	5.24	6.36	6.97	6.61	5.62	5.01	5.29	6.05	6.96	8.15	8.94	8.84	9.27	10.56	10.27	8.80	6.81	4.66	3.49	3.64	4.58	5.43	5.35	4.67	4.49	4.76	5.40	5.81	5.77	6.70	6.87	7.33	7.85	8.93	9.71	9.90	9.57	9.34	9.31	9.17	9.48	9.90	10.20	10.65	11.49	12.56	13.80	17.42	20.99	18.61	14.96	13.68	11.45	9.37	8.50	8.13	7.96	7.66	7.27	7.36	7.00	6.51	7.04	4.99	5.30	5.69	6.85	5.59	5.59
3.38	3.53	3.50	3.48	3.69	3.69	3.63	3.61	3.55	3.87	3.54	3.59	3.70	3.82	4.12	4.10	4.81	5.07	5.14	5.10	5.00	5.04	5.78	6.92	7.38	7.10	6.39	6.79	6.93	7.04	7.24	7.67	8.08	8.32	8.54	8.71	9.07	9.54	9.62	10.07	10.61	11.40	12.22	13.70	15.14	16.78	17.50	11.17	4.53	5.25	8.54	8.89	5.87	4.41	3.83	4.79	5.72	6.56	6.75	6.79	6.56	6.57	6.97	7.15	6.65	6.09	5.94	5.98	6.11	6.38	6.80	5.07	6.32	6.76	7.85	8.14	8.11	9.42	6.85	6.61	7.06	7.35	7.54	6.60	5.94	5.30	4.76	4.42	4.57	6.09	7.31	7.16	5.90	5.07	5.15	5.71	6.32	7.33	8.96	9.75	9.47	9.94	10.09	8.85	7.39	5.58	4.54	4.44	4.69	4.94	5.34	5.49	5.30	5.12	5.75	6.75	6.23	5.33	6.34	6.35	7.14	8.31	9.70	10.25	9.64	8.58	8.42	8.29	9.17	9.35	9.70	9.98	10.61	11.61	12.52	14.23	19.81	19.86	16.17	13.82	11.67	9.14	7.80	7.55	7.62	7.33	7.08	7.02	6.75	6.44	6.24	5.41	4.60	4.98	5.18	7.09	7.09
3.32	3.52	3.58	3.56	4.00	3.69	3.59	3.72	3.53	3.56	3.58	3.60	3.68	3.79	4.11	4.14	4.94	5.03	5.02	4.98	5.03	5.18	5.83	6.72	5.91	6.45	5.87	6.24	6.36	6.49	6.82	7.34	7.71	7.98	8.22	8.47	8.81	8.88	9.08	9.40	9.83	10.53	11.20	11.84	12.74	14.71	18.26	17.30	10.00	6.68	8.31	8.93	7.32	5.93	4.63	5.52	6.11	6.76	6.81	6.68	6.81	6.78	6.91	6.70	6.60	6.20	5.98	5.98	6.24	6.58	6.57	5.07	5.41	6.26	7.20	7.82	8.19	7.72	8.90	8.42	6.05	6.48	6.90	7.30	6.92	6.63	5.98	4.87	4.35	5.61	7.40	7.53	5.96	4.87	4.95	5.63	6.31	6.92	8.54	10.19	9.63	9.42	8.83	8.42	7.64	6.21	5.22	5.18	5.28	4.97	4.96	5.43	5.63	5.59	6.90	7.54	6.65	5.24	5.36	5.53	6.60	7.57	9.78	10.85	9.38	8.28	8.12	8.99	9.11	9.28	9.58	9.84	10.32	11.07	12.08	12.80	16.70	19.77	17.88	15.02	12.81	9.96	7.93	7.31	7.48	7.49	7.16	7.27	7.07	6.56	6.00	5.53	5.18	4.22	4.59	6.60	6.60
3.26	3.53	3.68	3.64	3.69	3.65	3.60	3.57	3.57	3.61	3.63	3.63	3.67	4.04	4.16	4.91	5.01	4.94	4.82	4.85	4.98	5.31	5.95	6.57	6.36	5.73	5.54	5.65	5.79	5.94	6.41	7.09	7.52	7.83	8.02	8.29	8.26	8.55	8.74	8.92	9.29	9.72	10.56	11.01	11.39	11.97	14.74	18.13	16.87	13.36	10.45	9.20	7.74	6.44	5.64	6.13	5.77	7.05	7.06	6.89	6.80	6.42	6.31	6.31	6.42	6.46	6.20	6.12	6.22	6.24	5.05	5.26	5.43	6.97	6.87	7.41	8.01	7.97	8.91	7.80	5.24	5.49	6.11	8.27	8.22	7.05	7.33	6.19	4.66	5.25	7.18	7.72	6.09	4.62	4.61	5.41	6.52	7.48	9.09	10.34	9.58	8.60	8.27	7.84	7.28	6.30	5.35	5.34	5.62	5.35	4.95	5.19	5.39	5.26	5.93	7.28	6.92	5.75	5.35	5.41	5.77	7.16	9.32	10.85	9.43	8.42	9.21	9.36	9.27	9.26	9.42	9.71	10.21	10.83	11.70	11.95	14.40	19.19	18.40	15.70	14.28	11.58	9.15	7.51	7.31	7.68	7.50	7.60	7.34	6.92	6.36	5.86	5.39	5.09	4.05	5.45	5.45
3.16	3.52	3.78	3.70	3.66	3.56	3.58	3.60	3.61	3.63	3.64	3.63	3.68	4.08	4.25	4.97	4.92	4.73	4.67	4.83	5.06	5.56	6.14	6.34	5.43	4.71	4.91	5.15	5.27	5.35	5.79	6.48	7.08	7.55	7.86	8.11	8.05	8.26	8.42	8.54	8.81	9.28	9.56	9.90	10.35	10.70	11.68	14.18	17.27	17.00	15.86	12.93	9.61	7.59	6.39	5.71	6.76	7.09	6.61	7.11	6.84	6.48	6.07	6.22	4.27	6.96	6.11	5.55	3.50	4.17	4.89	5.29	6.84	6.76	6.87	7.16	7.61	7.87	6.67	7.75	4.73	5.15	7.20	6.68	5.76	6.65	7.69	8.51	6.08	5.82	7.09	7.62	6.32	4.64	4.34	4.94	6.28	7.96	9.77	10.44	9.62	8.53	7.92	7.61	6.88	6.02	5.10	5.02	5.48	5.43	5.17	5.32	5.52	5.43	5.75	6.76	6.98	6.21	5.60	5.43	5.53	6.80	8.36	9.85	9.24	8.42	9.49	9.46	9.32	9.26	9.33	9.56	10.09	10.65	11.58	11.81	15.77	19.46	17.85	14.16	12.82	10.40	9.52	7.80	7.30	7.46	7.61	7.64	7.44	7.18	6.74	6.32	5.54	5.16	4.62	3.96	3.96
3.00	3.47	3.85	3.74	3.64	3.46	3.54	3.61	3.63	3.64	3.63	3.62	3.69	4.12	4.28	4.37	4.30	4.18	4.72	5.03	5.43	6.01	6.35	5.84	4.22	3.97	4.29	4.69	4.85	4.92	5.29	5.82	6.39	6.84	7.30	7.42	7.85	8.00	8.09	8.29	8.63	8.63	8.78	9.00	9.39	10.00	10.31	11.12	12.94	15.88	18.33	17.08	14.95	11.49	8.32	6.61	6.32	6.56	7.60	7.50	7.10	6.52	5.84	5.42	5.78	6.36	6.08	5.20	4.75	3.76	4.56	5.03	5.46	6.24	7.05	7.16	7.31	7.62	6.79	5.39	7.22	6.92	6.35	5.99	4.79	5.34	6.57	7.57	6.98	6.79	7.40	7.54	6.51	4.94	4.12	4.41	5.62	8.04	10.49	10.49	9.66	8.37	7.80	7.62	6.89	5.86	4.90	4.59	4.99	5.12	5.10	5.43	5.80	6.07	6.26	6.59	6.71	6.32	5.88	5.57	5.54	6.23	8.23	8.68	8.57	9.11	9.26	9.33	9.20	9.23	9.43	9.66	10.09	10.48	11.24	11.78	17.66	22.43	18.41	13.42	11.39	8.99	8.80	7.97	7.63	7.76	7.82	7.59	7.45	6.92	6.66	6.46	5.88	5.19	5.11	3.96	3.96
2.87	3.40	3.85	3.76	3.61	3.40	3.55	3.66	3.65	3.66	3.62	3.64	3.74	4.18	4.29	4.38	4.36	4.79	4.97	5.35	5.81	6.46	6.57	4.60	3.66	3.13	3.58	4.19	4.55	4.70	5.10	5.53	5.95	6.23	6.51	7.09	7.44	7.76	7.84	8.24	8.09	8.14	8.35	8.60	8.78	9.34	9.86	10.08	11.01	12.62	14.82	17.41	17.37	16.12	12.29	8.71	7.72	7.31	7.83	7.95	6.16	6.09	5.47	4.83	5.20	5.95	6.03	5.06	4.93	4.95	4.11	5.64	5.24	6.11	7.09	7.24	7.16	7.40	6.85	8.23	7.47	6.69	5.61	5.61	5.33	5.13	5.30	6.76	8.09	7.06	7.75	7.47	6.77	5.70	4.46	4.15	5.14	7.94	10.99	11.16	10.06	8.54	7.62	7.40	6.92	5.97	4.98	4.42	4.47	4.60	4.70	5.26	5.86	6.20	6.57	6.79	6.80	6.42	6.01	5.72	5.84	6.90	8.73	8.93	8.83	8.59	8.69	9.20	9.37	9.53	9.65	10.04	10.40	10.82	11.14	11.91	16.31	22.14	19.91	13.32	11.78	9.58	8.23	7.68	8.01	7.92	7.95	7.85	7.47	6.80	6.56	6.42	5.92	5.22	4.94	4.75	4.75
2.86	3.40	3.82	3.77	3.55	3.28	3.49	3.68	3.66	3.65	3.59	3.96	4.07	4.22	4.26	4.88	4.88	4.91	5.23	5.71	6.31	6.99	6.55	4.81	3.49	2.60	2.79	3.53	4.18	4.52	4.94	5.29	5.60	5.90	6.04	6.44	6.76	7.37	7.76	7.55	7.33	7.55	7.96	8.29	8.54	8.82	9.48	9.88	10.07	10.74	11.86	13.90	16.71	17.63	16.36	12.91	10.36	8.55	7.64	6.99	5.74	5.90	5.62	5.07	5.08	5.81	5.80	5.13	4.61	4.60	4.77	4.33	5.09	5.94	6.90	7.11	6.96	7.15	9.00	8.45	7.57	6.75	5.53	5.43	5.36	5.03	5.04	6.02	7.21	7.90	7.58	8.94	6.81	6.58	5.62	4.44	4.69	7.17	10.39	12.08	11.16	9.06	7.34	6.87	6.56	5.86	5.19	4.56	4.24	4.13	4.20	4.90	5.81	6.11	6.39	6.80	6.97	6.61	5.96	5.48	5.71	7.78	9.34	8.69	7.92	7.78	8.50	9.13	9.54	9.53	9.59	10.23	10.88	11.53	11.65	12.25	14.26	20.69	20.32	13.80	10.82	10.64	9.71	9.21	8.92	8.70	8.47	8.23	7.61	6.94	6.78	6.49	6.00	5.10	4.85	5.63	5.63
2.92	3.45	3.82	3.76	3.54	3.16	3.37	3.63	3.60	3.57	3.90	3.87	4.00	4.13	4.16	4.75	4.81	4.98	5.38	6.04	7.02	7.27	6.71	5.40	3.81	2.63	2.36	2.90	3.69	4.26	4.60	4.91	5.28	5.65	5.90	5.64	6.26	7.11	7.11	6.60	6.34	6.67	7.36	7.93	8.27	8.45	8.79	9.45	9.76	9.92	10.32	11.48	13.87	16.57	17.18	16.54	14.25	10.41	7.86	6.57	6.76	6.18	5.80	5.66	5.22	5.42	5.77	5.35	4.58	4.28	4.44	4.01	4.53	5.77	7.25	8.14	8.28	8.71	8.67	8.29	7.47	6.23	5.72	5.69	5.54	5.27	5.39	6.09	6.83	7.33	8.58	9.13	6.50	6.83	6.89	5.56	4.54	5.89	9.12	12.39	12.43	10.20	7.54	6.35	5.93	5.43	5.02	4.66	4.21	3.88	3.77	4.28	5.34	6.02	6.31	6.66	6.98	6.85	6.10	5.20	4.92	6.06	8.60	9.81	9.26	8.60	8.53	8.92	9.30	9.26	9.23	9.68	10.25	11.25	11.90	12.17	13.14	17.77	20.94	19.20	14.53	13.55	11.75	10.83	9.58	9.35	8.97	8.74	8.12	7.62	7.17	6.89	6.34	4.17	3.61	4.34	4.34
2.93	3.50	3.85	3.77	3.65	3.17	3.27	3.57	3.51	3.43	3.37	3.76	3.89	4.02	4.61	4.69	4.81	5.07	5.38	5.84	6.53	7.18	7.37	6.09	4.31	2.98	2.47	2.61	3.19	3.88	4.19	4.54	4.98	5.39	5.73	5.55	6.42	6.59	6.31	5.82	5.52	5.99	6.65	7.45	7.88	8.15	8.40	8.85	9.41	9.63	9.73	10.27	11.53	13.65	15.65	17.09	17.13	13.25	8.12	6.81	5.94	6.38	5.68	5.54	5.61	5.32	5.79	5.79	5.02	4.37	4.07	4.50	5.22	6.42	7.18	7.61	7.77	7.94	8.01	7.85	7.20	6.89	6.36	5.94	5.34	5.36	5.72	6.23	6.72	7.05	6.71	7.03	6.61	6.72	7.46	7.08	5.65	5.82	7.98	11.64	13.50	11.21	7.89	6.17	5.43	4.89	4.52	4.28	4.05	3.76	3.44	3.57	4.28	5.50	6.28	6.74	7.12	7.25	6.73	5.73	4.88	4.93	6.30	8.50	8.35	8.91	7.57	8.71	8.83	8.99	9.14	9.18	9.50	10.31	11.41	11.81	12.56	15.69	20.53	21.65	17.74	14.20	11.51	10.07	9.94	9.36	9.31	9.06	8.44	7.87	7.58	7.03	5.74	4.86	3.68	4.04	4.04
2.91	3.48	3.82	3.80	3.83	3.29	3.24	3.56	3.45	3.29	3.25	3.66	3.78	3.88	4.50	4.60	4.78	4.94	5.16	5.51	6.01	6.99	7.90	6.60	4.77	3.38	2.73	2.68	3.11	3.41	3.59	4.38	4.72	5.16	5.47	5.83	6.39	6.39	5.95	5.49	5.31	5.87	6.28	6.90	7.41	7.74	8.20	8.69	8.92	9.21	9.41	9.74	10.26	11.47	13.32	16.11	18.31	16.21	9.42	7.22	6.80	6.90	6.00	5.41	5.29	5.77	6.34	6.31	5.49	4.71	4.43	4.78	5.53	6.47	7.14	7.50	7.40	7.23	7.29	7.05	6.77	7.29	6.59	7.14	6.23	5.46	5.47	5.85	6.13	6.71	6.45	7.05	7.15	6.90	7.19	8.07	7.53	7.38	9.02	12.10	13.83	11.62	7.97	6.23	5.25	5.95	4.15	5.54	5.40	3.57	3.25	3.28	3.60	4.35	5.63	6.53	7.15	7.52	7.63	7.21	6.16	5.34	5.63	6.76	7.93	7.76	8.18	8.45	8.75	8.99	9.12	9.18	9.25	10.11	11.57	11.79	11.88	14.22	19.58	23.88	22.32	15.48	11.76	10.03	9.26	9.72	10.05	9.40	8.19	7.41	7.35	6.23	6.36	5.92	4.31	3.94	3.94
3.02	3.46	3.70	3.81	3.97	3.47	3.33	3.60	3.44	3.21	3.17	3.18	3.64	3.73	3.77	4.47	4.60	4.80	5.00	5.33	5.68	6.51	7.93	7.01	5.26	3.85	3.10	2.92	3.17	3.41	4.03	4.41	4.67	4.89	5.31	5.76	6.35	6.35	5.87	4.85	5.42	5.66	5.97	6.33	6.67	7.03	7.61	8.25	8.70	8.90	9.01	9.27	9.63	10.35	11.72	14.17	18.52	18.60	12.58	8.17	7.19	6.29	5.18	5.64	5.32	5.94	6.70	6.61	6.10	5.24	4.96	5.17	5.80	6.63	7.45	7.92	7.37	6.83	6.77	6.02	6.66	8.11	9.15	7.95	6.56	5.16	5.10	6.20	5.43	5.90	7.02	6.91	7.52	7.50	7.19	7.75	8.55	9.24	11.07	14.13	14.73	11.36	7.95	6.34	6.13	4.20	5.35	5.30	5.18	4.86	4.38	4.05	3.13	3.48	4.50	5.64	6.43	6.86	7.48	8.06	8.03	7.10	6.38	6.82	7.71	7.31	7.57	8.10	8.61	8.85	8.96	9.13	9.31	10.33	11.97	11.88	11.55	13.05	16.67	23.35	27.02	23.11	15.09	10.83	9.31	8.91	9.68	9.45	9.10	8.07	6.76	6.16	6.41	6.61	5.37	4.63	4.63
3.21	3.47	3.62	3.82	4.02	3.62	3.49	3.68	3.49	3.22	3.15	3.14	3.15	3.17	3.28	3.77	3.98	4.71	4.91	5.08	5.37	6.25	7.62	7.27	5.80	4.43	3.61	3.26	3.33	3.53	4.28	4.56	4.60	3.81	4.22	5.82	6.31	6.12	5.65	4.64	5.03	5.19	5.63	5.98	5.92	6.13	6.62	7.19	7.92	8.45	8.64	8.69	9.17	9.86	10.84	12.31	15.87	19.12	17.48	10.53	7.95	6.87	5.11	5.29	6.02	6.71	7.00	6.78	6.32	5.77	5.74	5.71	6.05	6.76	7.81	8.33	7.74	6.89	6.50	5.35	6.13	8.34	9.96	8.71	7.10	4.03	4.95	4.94	4.58	3.93	5.18	6.38	7.57	8.20	7.84	7.37	7.85	8.93	11.16	15.29	16.36	11.82	7.76	6.30	4.78	5.19	5.20	5.14	5.13	4.80	4.42	4.28	4.34	2.84	3.42	4.67	5.36	5.56	5.97	6.86	8.00	8.26	7.83	8.31	8.08	7.70	7.30	7.63	8.47	8.95	9.09	9.25	9.49	10.38	11.80	11.88	11.44	12.09	13.33	17.02	24.15	26.36	22.44	14.29	10.38	9.13	9.12	9.86	9.95	8.88	7.26	6.34	6.30	6.55	5.77	5.25	5.25
3.35	3.47	3.63	3.88	3.98	3.69	3.62	3.75	3.58	3.32	3.20	3.14	3.11	3.09	3.19	3.42	3.97	4.16	4.75	4.89	5.12	6.02	7.18	7.24	6.20	5.02	4.19	3.70	3.54	3.73	4.55	4.77	4.77	3.85	4.21	5.94	6.28	5.86	4.92	4.57	5.02	5.12	5.64	6.15	6.09	5.99	6.09	6.36	6.92	7.75	8.24	8.46	8.88	9.61	10.32	11.19	12.86	17.18	19.11	16.07	9.70	8.20	6.82	5.36	6.18	7.26	7.74	7.35	6.51	6.24	6.24	6.28	6.30	6.69	7.75	8.49	8.06	7.23	6.54	5.50	5.81	8.27	8.78	9.20	5.70	4.39	3.43	4.20	3.99	2.80	3.71	4.90	6.49	7.83	8.24	7.78	7.12	7.15	8.03	12.21	18.12	15.51	8.36	5.91	4.54	4.98	3.74	3.83	5.17	4.93	4.74	4.55	4.45	4.26	2.87	4.02	4.68	4.75	4.90	5.46	6.45	7.33	7.81	8.82	8.87	8.21	7.66	7.59	8.34	9.14	9.48	9.62	9.75	10.26	11.14	11.38	10.98	11.17	11.81	13.07	16.32	22.56	24.93	21.12	13.69	10.36	9.67	10.18	10.47	9.65	8.08	7.02	6.74	6.67	5.85	5.33	5.33
3.37	3.50	3.72	3.97	3.95	3.75	3.72	3.79	3.69	3.49	3.33	3.19	3.12	3.10	3.16	3.34	3.58	4.58	4.59	4.06	4.88	5.80	6.65	6.95	6.36	5.45	4.68	4.02	3.70	3.89	4.74	4.92	5.01	4.94	5.23	6.02	6.25	5.80	5.48	5.54	5.55	5.25	5.49	6.07	6.08	5.97	5.96	5.86	6.20	6.93	7.92	8.46	8.74	9.21	9.85	10.63	11.45	13.71	18.37	18.26	14.75	10.71	8.24	6.63	7.30	6.74	8.41	8.07	6.85	6.52	6.54	6.75	6.79	6.84	7.66	8.54	8.17	7.49	6.74	5.47	6.08	8.26	9.01	7.64	5.94	4.64	3.49	4.06	3.79	3.86	2.62	3.37	4.62	6.35	7.39	7.67	7.35	6.90	6.70	7.90	15.06	18.09	12.46	6.41	4.63	3.74	3.82	5.11	5.14	5.04	5.03	4.94	4.72	4.24	3.98	3.54	4.42	4.56	4.49	4.76	5.41	6.06	6.57	7.30	8.82	8.89	8.63	8.05	8.29	9.07	9.60	9.93	10.27	10.52	10.60	10.56	10.27	10.26	10.60	11.23	12.73	15.82	21.97	23.58	19.42	13.08	10.88	10.65	10.72	10.33	9.05	7.81	7.29	7.03	6.04	5.34	5.34
3.24	3.48	3.83	4.03	3.97	3.81	3.79	3.82	3.78	3.65	3.50	3.31	3.19	3.17	3.21	3.29	3.45	4.33	4.40	4.60	4.92	5.50	6.14	6.48	6.25	5.58	4.94	4.27	3.84	4.00	4.79	4.91	5.02	5.18	5.29	5.88	6.19	5.95	5.93	5.84	5.39	5.22	5.53	5.92	6.15	6.13	5.83	5.56	5.68	6.51	7.66	8.30	8.47	8.83	9.43	10.25	10.92	12.13	15.06	17.80	16.66	12.25	8.41	7.03	8.12	8.57	7.80	7.56	6.41	6.76	6.90	7.22	7.36	7.34	7.99	8.62	8.02	7.34	6.83	5.45	6.69	8.59	9.46	7.89	5.92	5.60	3.68	2.75	4.50	3.94	3.58	2.87	3.65	4.89	6.11	6.68	7.25	7.56	7.33	7.09	10.94	18.05	17.10	9.74	5.68	4.42	4.08	5.22	5.33	5.10	5.07	5.23	5.03	4.60	4.32	3.10	4.14	4.65	4.60	4.50	4.78	5.36	5.71	6.08	7.06	8.12	7.92	7.57	8.02	8.69	9.51	10.11	10.73	10.97	10.54	10.14	10.13	10.00	9.83	10.02	10.72	12.28	15.54	20.74	20.73	17.27	13.44	11.72	11.20	10.84	9.77	8.30	7.38	7.03	6.12	5.43	5.43
3.07	3.43	3.84	4.03	4.02	3.82	3.79	3.81	3.82	3.77	3.64	3.47	3.34	3.30	3.29	3.32	3.39	3.82	3.88	4.46	4.76	5.31	5.80	6.06	6.02	5.51	4.99	4.42	4.00	4.60	4.76	4.79	4.95	5.22	5.41	5.89	6.09	6.02	6.07	5.86	5.66	5.33	5.61	6.04	6.28	6.25	5.95	5.41	5.52	6.39	7.51	8.06	8.33	8.60	9.08	9.81	10.68	11.54	13.60	16.29	16.77	13.79	8.76	7.03	6.83	7.09	7.78	7.74	7.59	6.82	7.01	7.45	7.83	8.19	8.62	8.66	7.77	7.17	6.49	5.94	7.14	9.26	10.04	8.17	5.76	4.64	4.89	4.80	4.64	4.13	3.92	3.74	3.86	4.16	5.20	5.63	6.16	7.56	8.05	7.63	8.62	14.73	18.88	14.30	8.10	5.87	4.87	5.42	5.16	5.07	5.04	5.02	5.03	4.79	4.41	4.52	4.90	4.39	4.95	4.99	4.92	5.21	5.53	5.71	6.14	6.56	6.67	6.73	7.28	7.76	9.20	9.82	10.41	10.84	10.71	10.66	10.79	10.55	9.92	9.72	10.02	10.70	12.17	15.16	18.57	18.13	15.64	13.19	11.88	11.08	9.94	8.42	7.24	6.70	6.00	5.59	5.59
3.10	3.51	3.85	4.02	4.11	3.86	3.75	3.75	3.81	3.82	3.72	3.59	3.52	3.47	3.43	3.41	3.73	3.79	3.90	4.40	4.65	5.12	5.49	5.69	5.76	5.38	4.95	4.48	4.31	4.31	4.78	4.77	4.88	5.23	5.49	5.95	6.08	5.94	5.91	5.81	5.68	5.32	5.59	6.06	6.24	5.91	5.62	5.19	5.55	6.47	7.40	7.88	8.32	8.54	8.80	9.40	10.52	11.76	13.03	15.13	16.46	15.45	11.66	8.41	7.53	7.34	8.56	8.51	6.18	5.30	6.80	7.27	7.83	8.77	9.36	9.05	8.00	7.17	5.69	5.78	7.24	9.50	10.41	8.49	5.59	4.53	6.14	5.57	4.95	4.21	4.20	4.37	4.52	4.62	4.70	5.10	5.30	6.67	8.06	8.18	8.18	11.70	18.30	17.20	10.91	7.67	6.82	4.83	4.19	5.05	4.90	5.02	4.96	5.00	5.34	5.14	5.07	3.34	4.63	5.53	5.67	5.55	5.66	5.76	5.76	5.71	5.88	6.25	6.47	7.33	8.09	9.05	9.54	9.63	10.59	11.29	11.58	10.43	9.69	8.96	9.15	10.18	11.27	12.84	15.37	17.41	16.22	14.26	12.44	11.32	9.86	8.40	7.19	6.43	5.67	5.25	5.25
3.23	3.66	3.95	4.09	4.26	3.98	3.79	3.72	3.75	3.78	3.73	3.66	3.65	3.64	3.60	3.85	3.81	3.87	3.54	3.62	4.16	4.96	4.75	4.98	5.19	5.21	4.93	4.58	4.44	4.42	4.87	4.82	4.86	5.15	5.50	5.90	5.98	5.84	5.62	5.56	4.72	5.31	5.61	5.98	5.96	5.88	5.75	5.82	6.06	6.66	7.36	7.77	8.10	8.41	8.53	8.97	10.16	11.49	12.46	14.04	15.70	15.70	12.04	9.30	8.66	8.89	8.67	7.69	7.27	6.55	6.69	6.82	7.34	8.64	9.75	9.50	8.34	7.31	6.83	6.10	7.32	9.50	10.39	8.80	5.82	4.58	5.36	5.93	5.17	4.55	4.21	4.50	4.90	5.13	5.34	4.87	5.31	6.21	7.62	8.16	8.19	10.41	16.53	18.10	13.55	9.35	7.00	6.21	4.55	3.93	4.87	4.87	5.08	5.08	5.37	5.18	4.96	4.47	3.49	5.24	6.11	6.07	5.97	5.97	5.69	5.29	5.34	5.74	6.12	6.64	7.34	7.82	8.33	8.64	9.31	10.80	11.58	11.50	11.19	10.06	9.76	10.75	11.47	12.04	13.64	15.81	16.66	14.97	13.05	11.51	9.73	8.36	7.20	6.37	5.97	5.67	5.67
3.24	3.73	4.07	4.20	4.41	4.15	3.91	3.79	3.70	3.71	3.71	3.67	3.70	3.76	4.07	4.05	3.64	3.57	3.62	3.72	3.83	4.43	4.54	4.68	4.88	4.98	4.80	4.56	4.46	4.44	4.41	4.31	4.78	4.98	5.41	5.89	5.98	5.15	4.94	4.79	4.65	5.26	5.70	6.20	6.29	6.27	6.36	6.55	6.80	7.13	7.43	7.69	7.91	8.29	8.53	8.75	9.49	10.49	11.48	13.13	15.95	16.27	13.23	10.31	10.21	11.12	9.78	7.45	6.44	6.58	6.09	6.41	6.77	8.21	9.64	9.66	8.54	7.12	7.28	7.28	7.88	9.47	10.11	8.69	6.13	5.03	7.09	6.52	5.38	4.46	3.97	4.03	4.82	5.39	5.61	5.27	5.62	6.15	7.16	7.78	8.12	9.69	14.12	17.57	15.83	10.63	7.13	5.67	4.96	4.18	4.98	4.96	5.21	5.32	5.73	5.55	5.11	4.81	2.87	4.54	5.95	6.37	6.39	6.42	5.97	5.30	5.07	5.24	5.71	6.40	7.05	7.44	7.29	7.10	7.93	9.27	10.20	11.67	12.57	12.15	11.53	11.53	11.74	11.76	12.46	14.30	16.16	16.04	13.99	11.46	9.55	8.28	7.21	6.47	6.11	6.02	6.02
3.18	3.68	4.09	4.27	4.52	4.28	4.05	3.96	3.75	3.69	3.72	3.65	3.68	3.81	3.87	3.86	3.81	3.73	3.72	3.81	4.37	4.42	4.46	4.51	4.65	4.77	4.73	4.57	4.45	4.37	4.29	4.20	4.16	4.81	5.23	5.77	6.01	5.98	5.18	5.08	4.80	5.25	5.74	6.30	6.44	6.46	6.60	6.93	7.27	7.50	7.65	7.72	7.90	8.23	8.43	8.50	9.06	9.76	10.66	11.96	14.77	16.03	15.63	13.60	12.94	13.31	11.33	7.96	6.73	5.64	5.94	4.47	6.46	7.75	8.76	8.72	7.42	8.20	8.33	8.85	9.01	9.58	9.80	8.30	6.26	7.87	7.35	6.49	5.03	4.24	3.44	3.11	4.01	5.10	5.79	6.46	5.77	7.02	7.09	7.57	7.56	8.61	11.65	16.67	17.44	12.10	6.82	5.63	5.13	4.46	5.16	5.13	5.51	5.33	5.71	5.65	5.34	4.99	4.87	3.99	5.49	6.39	6.85	7.10	6.54	5.53	4.93	4.91	5.35	6.03	6.69	7.08	6.72	6.28	6.90	7.89	8.28	9.13	10.57	11.34	11.42	11.27	11.31	11.54	11.98	13.16	15.53	16.65	14.30	11.22	9.30	8.21	7.26	7.01	5.59	6.74	6.74
3.20	3.63	4.03	4.29	4.57	4.32	4.13	4.11	3.88	3.75	3.74	3.63	3.64	3.79	3.91	3.95	3.93	3.87	3.85	4.33	4.37	4.44	4.49	4.52	4.56	4.63	4.66	4.59	4.47	4.34	4.19	4.08	4.57	4.67	5.03	5.60	5.92	6.04	6.03	6.03	5.68	5.48	5.82	6.38	6.57	6.62	6.73	7.04	7.41	7.62	7.78	7.81	7.87	7.98	8.16	8.28	8.70	9.39	10.05	10.86	12.42	14.57	14.85	13.98	13.90	14.99	14.25	10.57	7.91	6.00	4.84	5.78	6.27	7.10	7.77	7.82	6.93	7.19	8.64	9.78	10.06	11.13	9.31	7.92	8.74	8.23	8.01	6.43	4.40	3.55	3.12	2.76	2.70	3.38	4.71	6.60	7.17	7.20	7.44	7.46	7.16	7.32	8.80	13.43	18.33	14.63	7.17	5.45	5.18	4.64	5.47	5.78	5.71	5.45	5.69	5.42	5.46	5.29	5.07	3.72	4.87	6.06	7.10	7.84	7.40	5.99	5.07	4.88	5.26	5.85	6.43	6.75	6.44	6.01	6.15	7.01	7.95	8.36	9.04	9.76	10.65	10.99	10.81	11.19	11.85	12.61	14.98	16.90	14.50	10.98	8.99	8.11	7.33	7.00	5.74	6.00	6.00
3.30	3.66	4.01	4.31	4.56	4.28	4.16	4.19	4.01	3.86	3.79	3.64	3.62	3.76	3.93	4.02	4.03	4.00	4.36	4.36	4.37	4.46	4.57	4.62	4.59	4.57	4.56	4.51	4.45	4.38	4.22	4.08	4.52	3.99	4.88	5.34	5.54	5.77	5.75	5.90	5.83	5.77	5.99	6.34	6.60	6.71	6.80	7.04	7.47	7.70	7.77	7.77	7.79	7.89	7.99	8.16	8.51	8.95	9.50	10.11	10.93	11.98	12.63	12.98	13.87	15.67	15.68	14.57	10.86	7.22	5.81	5.29	5.51	6.44	7.34	7.04	6.34	6.59	7.92	10.08	10.60	9.70	8.40	9.17	8.72	8.95	9.74	7.70	4.02	3.23	3.23	3.20	2.70	2.80	4.12	5.21	7.23	7.41	7.70	7.93	7.07	6.90	7.18	10.50	17.40	16.62	8.46	5.65	5.39	4.85	6.59	6.14	5.89	5.58	5.67	5.45	5.59	5.45	5.19	3.44	4.11	5.21	6.61	7.95	8.16	7.07	5.88	5.31	5.40	5.81	6.22	6.63	6.56	6.16	6.13	6.98	7.44	8.52	8.84	9.37	10.36	10.96	10.71	10.99	11.77	12.49	14.74	16.86	14.49	10.82	8.82	7.96	7.33	6.99	6.34	6.06	6.06
3.34	3.73	4.09	4.37	4.52	4.22	4.17	4.22	4.11	3.98	3.87	3.70	3.63	3.76	3.96	4.07	4.10	4.08	4.08	4.50	4.44	4.05	4.54	5.05	4.61	4.55	4.51	4.48	4.46	4.39	4.29	4.68	3.94	4.55	4.81	5.12	5.32	5.52	5.64	5.72	5.80	5.85	6.06	6.35	6.60	6.80	6.91	7.06	7.47	7.57	7.62	7.69	7.74	7.77	7.83	7.95	8.19	8.50	8.94	9.44	9.99	10.64	11.18	11.55	12.23	13.36	15.33	15.84	13.81	8.75	6.72	5.78	5.82	6.99	7.76	6.85	6.23	6.72	8.09	10.00	10.48	9.01	7.71	7.52	7.24	8.52	9.45	8.38	5.56	3.84	3.83	3.58	3.24	2.71	2.03	4.60	5.55	6.76	7.57	8.30	8.39	6.59	6.96	9.03	15.80	17.15	9.84	6.16	5.79	6.42	7.04	6.52	5.84	5.54	5.59	5.53	5.69	5.49	5.22	5.06	3.27	4.19	5.64	7.27	8.15	7.80	6.98	6.22	5.82	5.63	5.66	6.34	6.70	6.44	6.28	7.01	8.13	8.56	8.80	9.10	10.08	10.82	10.95	11.09	11.67	12.39	14.64	16.66	14.21	10.70	8.94	7.93	7.28	6.98	6.44	6.17	6.17
3.34	3.76	4.18	4.43	4.52	4.20	4.16	4.22	4.16	4.09	3.98	3.78	3.67	3.81	4.01	4.11	4.13	4.14	4.18	4.20	4.11	4.06	4.12	4.17	4.53	4.49	4.53	4.56	4.50	4.34	4.24	4.20	4.01	3.82	3.90	4.73	5.05	5.29	5.44	5.63	5.79	5.91	6.14	6.39	6.60	6.82	7.08	7.27	7.35	7.42	7.55	7.64	7.69	7.72	7.74	7.79	7.87	8.12	8.39	8.78	9.38	9.90	10.37	10.82	11.28	11.80	13.28	15.82	15.40	13.00	9.74	7.61	7.00	8.16	8.34	6.79	6.65	7.79	9.21	10.17	9.64	8.31	8.78	8.02	7.97	8.36	9.17	9.58	7.21	5.28	4.50	4.09	3.57	2.87	1.91	2.50	3.95	6.16	7.35	7.89	8.63	7.90	6.92	8.15	14.25	17.01	11.11	6.77	6.27	8.19	7.92	6.88	6.05	6.21	5.66	5.57	5.64	5.58	4.01	5.28	5.48	3.23	4.66	6.35	7.50	7.71	7.54	7.22	6.67	5.80	5.17	5.68	6.40	6.39	6.21	6.50	7.41	8.45	8.59	8.75	9.56	10.69	11.34	11.40	11.73	12.30	14.54	16.64	13.89	10.57	9.25	8.18	7.34	6.95	6.52	6.27	6.27
3.37	3.79	4.21	4.45	4.58	4.23	4.17	4.19	4.13	4.13	4.08	3.88	4.14	3.91	4.09	4.16	4.16	4.18	4.27	4.31	4.21	4.12	4.14	4.52	4.10	4.12	4.20	4.57	4.18	4.06	3.88	4.18	4.05	3.83	3.75	4.39	4.68	4.99	5.21	5.32	5.58	5.91	6.18	6.36	6.64	6.97	7.10	7.16	7.29	7.43	7.52	7.58	7.58	7.57	7.51	7.60	7.77	7.85	7.94	8.23	8.75	9.26	9.70	10.19	10.74	11.19	12.24	13.84	14.97	14.36	13.21	11.48	10.34	10.61	10.27	8.63	8.38	10.13	11.77	11.26	9.36	8.31	8.15	8.34	9.07	9.77	8.85	7.15	7.62	6.44	5.04	4.47	3.98	3.40	2.87	2.29	3.37	5.38	6.67	7.45	7.91	8.04	7.37	8.22	13.06	16.30	12.01	7.74	7.66	8.86	8.46	7.69	6.85	5.90	5.51	5.71	5.66	5.58	5.70	5.89	5.59	2.93	3.73	5.47	6.73	7.27	7.53	7.65	7.36	6.43	5.45	5.41	5.94	6.06	5.90	6.08	6.91	7.19	8.04	8.22	8.80	10.03	11.28	11.43	11.56	11.91	14.31	16.93	13.56	10.23	9.34	8.44	7.51	6.96	6.55	6.05	6.05
3.40	3.85	4.22	4.42	4.66	4.29	4.24	4.19	4.06	4.08	4.09	3.96	3.93	4.07	4.18	4.21	4.19	4.21	4.33	4.40	4.29	4.18	4.54	4.14	4.07	4.08	4.16	4.20	4.24	4.16	3.98	4.25	4.21	4.49	4.37	4.36	4.48	4.70	4.93	5.10	5.43	5.84	6.17	6.47	6.52	6.75	6.95	7.14	7.35	7.51	7.54	7.50	7.43	7.26	7.19	7.25	7.54	7.58	7.55	7.77	8.20	8.66	9.17	9.66	10.28	10.92	11.47	11.85	12.20	12.68	12.87	12.39	11.94	11.72	11.78	11.06	10.41	10.87	12.75	13.61	12.09	10.23	9.37	8.98	9.98	10.67	8.76	7.10	7.01	6.45	5.80	4.71	3.82	3.40	3.69	3.41	3.38	3.92	5.77	6.60	7.28	7.52	7.80	8.95	12.83	14.76	12.00	8.89	7.80	9.54	8.87	8.17	7.34	6.38	5.91	5.80	5.83	5.80	5.93	6.15	5.81	3.15	3.44	4.64	5.95	6.77	7.42	7.81	7.56	6.78	5.90	5.52	5.64	5.83	5.95	6.00	6.05	6.51	7.38	7.74	8.21	9.24	10.70	11.14	11.22	11.55	14.26	16.94	13.10	9.64	8.97	8.42	7.69	7.08	6.62	6.06	6.06
3.37	3.88	4.25	4.64	4.69	4.33	4.34	4.25	4.00	3.97	3.99	3.93	4.46	4.19	4.30	4.72	4.64	4.21	4.36	4.50	4.38	4.23	4.19	4.16	4.12	4.12	4.14	4.19	4.27	4.25	4.55	3.98	3.83	4.10	3.54	3.40	3.69	3.77	4.75	5.07	5.32	5.94	6.30	6.20	6.28	6.55	6.83	7.11	7.39	7.52	7.53	7.44	7.34	7.16	6.90	6.89	7.15	7.29	7.28	7.46	7.82	8.26	8.81	9.36	9.92	10.66	11.03	10.68	10.53	10.61	10.65	10.69	10.77	11.07	11.34	11.08	10.60	10.75	12.29	14.14	14.49	13.73	12.84	11.91	12.02	11.65	9.28	7.84	7.88	7.75	6.97	6.70	6.11	5.39	4.63	4.08	4.27	4.42	4.78	5.29	6.82	7.55	8.24	10.08	12.64	12.86	11.03	9.35	8.38	8.75	9.26	8.63	7.87	7.22	6.76	6.34	5.94	5.88	5.98	6.08	6.00	5.78	3.59	4.44	5.43	6.14	7.15	8.01	7.92	7.07	6.15	5.52	5.26	5.46	6.05	6.25	5.92	6.15	7.01	7.59	8.26	9.42	10.76	11.12	11.30	11.71	14.80	17.18	12.76	9.05	8.37	8.10	7.76	7.30	6.78	6.09	6.09
3.27	3.85	4.26	4.60	4.73	4.35	4.44	4.39	4.05	3.87	3.83	3.82	3.94	4.14	4.36	4.45	4.34	4.65	4.82	4.93	4.45	4.25	4.16	4.13	4.13	4.11	4.09	4.18	4.26	4.24	5.10	4.14	4.76	4.14	4.59	4.44	3.85	4.51	4.69	4.93	5.21	5.60	5.81	5.81	6.01	6.33	6.68	7.05	7.36	7.52	7.53	7.42	7.14	6.91	6.63	6.71	6.86	6.96	7.01	7.11	7.42	7.86	8.42	9.03	9.77	10.57	10.68	10.20	9.77	9.64	9.54	9.48	9.50	9.68	9.94	9.95	9.77	9.90	10.76	12.41	14.11	14.93	13.83	13.64	14.03	13.67	11.21	9.20	8.43	8.04	8.65	9.53	8.78	8.15	6.54	4.87	4.06	4.60	4.84	5.33	6.28	6.75	9.05	11.24	12.01	10.89	9.79	8.95	8.18	8.65	9.21	8.68	8.24	7.83	7.43	6.97	6.36	5.98	5.84	5.98	6.00	5.99	3.90	4.67	5.52	5.89	6.78	7.93	8.39	7.92	6.89	5.61	4.76	4.90	5.77	6.25	6.23	5.87	6.64	7.32	8.35	9.27	10.41	10.93	11.34	11.80	15.14	17.55	12.73	8.73	7.95	7.62	7.55	7.41	6.50	6.67	6.67
3.24	3.77	4.18	4.50	4.64	4.31	4.48	4.55	4.22	3.88	3.71	3.71	3.79	3.94	4.22	4.44	4.43	4.33	4.34	4.48	4.43	4.23	4.08	4.05	4.06	4.00	3.96	4.12	4.20	4.13	4.16	4.15	3.91	3.70	4.01	3.99	4.70	4.68	4.65	4.85	4.97	5.21	5.22	5.33	5.65	6.01	6.39	6.80	7.22	7.54	7.59	7.43	7.10	6.59	6.43	6.63	6.72	6.68	6.73	6.79	7.13	7.53	7.94	8.45	9.36	10.35	10.30	9.87	9.49	9.19	8.93	8.82	8.71	8.76	9.03	9.27	9.31	9.37	9.71	10.81	12.03	12.91	13.48	13.92	14.96	14.71	14.13	12.75	10.87	9.46	10.61	13.36	13.52	11.25	8.80	5.33	4.22	3.37	4.65	5.70	6.69	7.81	10.08	11.62	10.53	9.39	8.92	9.06	9.56	9.05	8.89	8.73	8.51	8.10	7.85	7.40	6.74	6.26	5.97	5.97	6.07	5.97	4.05	4.73	5.91	6.42	7.00	7.77	8.43	8.92	8.30	6.10	4.48	4.51	5.39	5.95	5.74	5.37	5.61	6.82	8.04	8.96	9.73	10.25	10.86	11.48	15.04	17.91	13.13	8.68	7.66	7.16	7.29	7.30	7.01	6.59	6.59
3.38	3.75	4.07	4.16	4.20	4.14	4.41	4.62	4.39	3.97	3.69	3.65	3.69	3.77	4.00	4.24	4.39	4.41	4.40	4.46	4.38	4.19	4.05	4.01	4.01	3.90	3.85	4.04	4.11	4.02	4.03	4.01	3.80	3.56	3.45	3.91	4.74	4.13	4.70	5.02	5.00	4.88	4.82	5.00	5.27	5.54	5.81	6.15	6.84	7.56	7.75	7.37	6.89	6.29	6.19	6.35	6.37	6.38	6.42	6.44	6.80	7.35	7.77	8.09	8.92	9.91	10.04	9.61	9.27	9.04	8.72	8.46	8.17	8.10	8.38	8.69	8.84	8.90	8.94	9.56	10.60	11.68	12.42	12.82	13.12	13.91	14.32	14.36	13.96	12.98	12.96	13.99	15.20	16.39	13.94	7.71	4.38	3.89	4.50	5.84	6.80	9.28	11.78	11.03	9.12	10.06	9.76	9.63	9.17	8.59	8.47	8.31	8.07	7.90	7.99	7.63	6.85	6.23	5.80	4.91	4.39	6.05	5.85	4.22	5.33	6.68	7.73	8.24	8.46	9.54	9.66	7.05	4.66	4.34	5.32	6.00	5.64	5.19	5.32	6.58	8.21	9.16	9.60	9.67	10.20	10.80	14.20	18.24	14.64	9.33	7.58	6.84	6.81	6.80	6.99	6.43	6.43
3.60	3.83	4.03	4.10	4.04	3.96	4.27	4.59	4.48	4.11	3.80	3.71	3.70	3.74	3.87	4.04	4.30	4.41	4.43	4.46	4.33	4.18	4.08	4.02	3.99	3.84	3.76	3.97	4.08	4.01	3.98	3.91	3.69	3.41	3.20	3.23	4.58	4.96	5.14	4.39	4.40	4.22	4.61	4.72	4.94	5.11	5.23	5.53	6.37	7.45	7.93	7.55	6.63	5.93	5.88	6.05	5.96	5.97	6.01	5.89	6.17	6.91	7.63	8.06	8.71	9.62	9.94	9.46	9.05	8.86	8.63	8.36	7.97	7.78	7.98	8.20	8.29	8.31	8.26	8.31	9.07	10.19	11.22	11.53	11.66	11.78	12.09	12.67	13.28	13.27	12.29	11.58	12.62	16.88	18.99	15.55	7.15	4.33	3.63	6.01	7.38	10.70	12.57	11.45	8.26	9.08	9.28	9.41	9.24	8.47	8.09	8.09	7.97	7.85	8.15	7.62	6.77	5.91	5.44	3.33	3.85	4.14	3.94	3.83	4.32	5.50	7.49	8.71	9.08	10.25	10.73	8.50	5.72	4.34	4.47	5.35	5.60	5.04	4.86	6.52	7.27	7.50	8.17	8.76	9.41	10.02	12.29	18.06	17.32	11.71	7.96	6.59	6.29	6.02	6.02	6.76	6.76
3.79	3.94	4.04	4.03	3.94	3.85	4.15	4.53	4.49	4.20	3.98	3.86	3.82	3.81	3.83	3.93	4.19	4.36	4.42	4.42	4.28	4.18	4.14	4.06	4.01	3.87	3.75	3.96	4.15	4.10	4.44	3.86	3.69	3.40	3.60	3.56	4.38	4.23	4.49	4.54	4.45	4.26	4.01	3.95	4.73	4.87	5.03	5.35	6.04	7.06	7.78	7.49	6.44	5.62	5.62	5.86	5.69	5.71	5.71	5.49	5.72	6.45	7.38	8.03	8.53	9.31	9.75	9.31	8.82	8.56	8.40	8.22	7.90	7.50	7.75	7.77	7.76	7.57	7.31	7.43	7.58	8.40	9.57	10.44	10.53	10.16	9.96	9.91	9.81	9.41	8.81	8.53	8.93	10.73	16.40	20.13	15.58	6.42	5.68	6.26	7.69	11.65	13.24	10.41	7.99	8.76	8.00	8.19	9.01	8.30	7.98	7.93	7.92	8.11	8.23	7.47	6.44	5.82	5.33	5.07	3.21	3.59	3.75	3.72	3.73	4.22	5.89	8.01	9.14	10.73	11.85	10.64	7.77	5.07	4.26	5.33	5.55	5.23	5.24	6.06	6.46	6.02	6.05	7.93	8.73	9.57	11.16	16.19	19.35	15.96	9.58	6.31	5.82	5.66	5.05	6.18	6.18
3.93	4.05	4.06	3.97	3.90	3.80	4.05	4.45	4.42	4.19	4.09	4.01	3.95	3.94	3.91	3.93	4.10	4.27	4.36	4.33	4.22	4.19	4.19	4.09	4.03	3.94	3.85	4.07	4.33	4.27	4.01	3.83	3.71	3.48	3.25	3.17	3.81	3.79	4.19	4.33	4.52	4.39	4.14	4.01	4.04	4.72	4.94	5.28	5.80	6.53	7.33	7.31	6.31	5.48	5.50	5.66	5.49	5.73	5.69	5.45	5.65	6.33	7.19	7.91	8.44	9.08	9.45	9.12	8.56	8.24	8.12	7.95	7.74	7.48	7.54	7.81	7.81	7.52	7.14	6.83	6.68	7.42	8.58	9.72	9.93	9.17	8.52	8.25	7.72	7.38	7.13	7.42	7.50	8.25	10.07	17.08	20.04	13.76	6.46	5.92	7.62	11.74	13.85	10.95	8.28	7.88	8.94	9.15	7.62	8.22	8.05	8.23	8.42	8.46	8.33	7.35	6.10	5.50	5.02	4.74	4.75	4.74	3.24	3.45	3.47	3.55	4.54	6.55	8.16	9.85	11.68	12.35	10.42	7.02	5.14	5.28	5.80	5.80	6.00	6.32	6.27	5.58	5.40	6.73	7.35	8.69	10.56	13.56	19.07	19.21	13.40	7.31	4.93	4.26	5.62	5.13	5.13
4.03	4.14	4.11	3.98	3.94	3.84	4.01	4.36	4.34	4.14	4.11	4.10	4.06	4.07	4.06	4.03	4.08	4.20	4.27	4.22	4.16	4.20	4.20	4.08	4.02	3.94	3.91	4.20	4.54	4.48	4.08	3.81	3.71	3.57	3.44	3.42	4.51	3.76	4.01	4.20	4.30	4.29	4.13	4.17	4.09	4.01	4.90	5.36	5.82	6.41	7.05	6.93	6.18	5.59	5.65	5.63	5.51	5.58	5.45	5.69	5.87	6.46	7.16	7.76	8.37	8.97	9.15	8.82	8.24	7.93	7.91	7.91	7.48	7.20	7.13	8.07	7.58	7.36	6.95	6.59	6.29	6.83	7.61	8.91	9.63	8.58	7.64	7.14	6.91	6.76	6.71	6.51	6.36	6.34	7.89	11.65	20.47	20.19	10.18	6.67	7.09	11.19	14.14	12.19	9.46	8.68	8.11	7.95	7.62	8.20	8.28	8.74	9.01	8.78	8.16	7.06	6.00	5.33	4.78	4.55	4.36	4.23	4.14	3.03	3.17	3.09	3.52	4.88	6.72	8.43	10.48	12.41	12.38	10.25	7.45	6.24	6.27	6.97	7.18	6.22	6.04	5.56	5.40	6.10	7.18	8.28	9.32	11.86	15.91	19.94	17.75	11.47	6.30	4.48	4.09	4.11	4.11
