ncols	157
nrows	121
xllcorner	319975
yllcorner	4158275
cellsize	50.000000
NODATA_value	-9999.000000
2.00	1.70	1.38	1.22	1.22	1.46	1.63	1.71	1.70	1.64	1.55	1.48	1.42	1.41	1.40	1.36	1.35	1.35	1.30	1.52	1.58	1.50	1.74	1.71	1.57	1.75	1.71	1.70	1.73	1.71	1.63	1.54	1.51	1.53	1.56	1.60	1.62	1.60	1.56	1.52	1.48	1.40	1.32	1.31	1.35	1.41	1.48	1.54	1.50	1.40	1.32	1.22	0.89	1.08	0.95	1.03	1.09	1.14	1.19	1.25	1.33	1.38	1.39	1.37	1.34	1.33	1.10	1.24	1.31	1.36	1.42	1.43	1.40	1.38	1.57	2.00	2.21	2.28	2.27	2.20	2.12	2.14	2.20	3.11	2.75	2.68	2.52	2.76	3.02	2.89	2.73	2.60	2.46	2.30	1.79	1.10	1.35	2.49	2.26	1.97	1.76	1.23	0.66	0.74	0.65	0.31	0.13	0.59	1.16	1.63	1.94	1.98	0.93	1.06	1.46	1.94	2.42	2.78	2.07	0.94	0.71	0.85	0.58	0.58	0.58	0.59	0.52	0.45	0.72	0.98	1.06	0.99	1.37	2.04	2.46	3.07	3.84	5.30	5.89	5.22	4.06	2.92	2.42	2.15	2.43	2.39	2.29	2.27	2.48	2.60	2.65	2.76	2.93	3.00	3.34	2.98	2.98
1.87	1.35	1.19	1.07	1.06	1.45	1.58	1.59	1.53	1.45	1.38	1.32	1.29	1.29	1.33	1.33	1.29	1.20	0.99	1.24	1.43	1.58	1.71	1.63	1.74	1.79	1.64	1.72	1.71	1.63	1.50	1.43	1.46	1.52	1.56	1.59	1.59	1.55	1.49	1.44	1.35	1.23	1.19	1.26	1.33	1.40	1.51	1.53	1.44	1.34	1.29	1.21	0.90	1.08	1.39	1.46	1.09	1.11	1.13	1.18	1.25	1.31	1.36	1.37	1.34	1.33	1.10	1.21	1.27	1.35	1.44	1.51	1.62	1.81	2.09	2.36	2.38	2.30	2.21	2.13	2.10	2.11	2.15	2.28	3.00	2.87	2.84	3.00	2.96	2.76	2.66	2.57	2.41	2.19	1.27	1.12	1.48	2.56	2.20	1.94	1.80	1.29	0.84	0.74	0.38	0.11	0.35	1.04	1.32	1.82	2.03	2.21	2.11	2.42	1.75	1.96	1.80	1.75	1.30	0.93	0.62	0.52	0.42	0.41	0.47	0.53	0.62	0.69	0.81	0.98	1.10	1.17	1.93	2.35	3.00	3.76	4.64	5.93	5.46	4.48	3.43	2.70	2.44	2.29	2.49	2.45	2.33	2.28	2.47	2.62	2.62	3.13	2.96	2.97	3.32	2.94	2.94
1.53	1.45	1.16	1.09	1.04	1.47	1.46	1.37	1.31	1.26	1.21	1.20	1.24	1.28	1.31	1.27	1.15	0.85	0.72	1.29	1.70	1.62	1.50	1.60	1.62	1.79	1.68	1.67	1.58	1.43	1.34	1.35	1.44	1.49	1.53	1.56	1.53	1.43	1.32	1.22	1.09	0.87	1.08	1.22	1.28	1.38	1.49	1.46	1.35	1.29	1.26	1.22	0.98	1.11	1.36	1.42	1.45	1.08	1.12	1.19	1.27	1.34	1.38	1.36	1.32	1.32	1.11	1.20	1.23	1.30	1.42	1.57	1.75	1.98	2.19	2.34	2.31	2.20	2.14	2.09	2.07	2.07	2.07	2.02	2.09	2.54	3.05	3.03	2.85	2.67	2.56	2.48	2.35	2.16	1.30	1.23	1.67	2.47	2.22	1.96	1.83	1.30	0.92	0.55	0.10	0.27	0.42	1.12	1.47	1.94	2.13	2.37	2.41	1.70	2.14	1.89	1.50	1.11	0.90	0.77	0.69	0.71	0.61	0.58	0.66	0.75	0.89	0.91	0.92	1.01	1.20	1.95	2.23	2.88	3.70	4.58	6.03	5.93	5.11	4.21	3.51	3.10	2.86	2.62	2.60	2.42	2.24	2.17	2.43	2.66	2.59	2.75	2.99	2.86	2.79	2.85	2.85
2.13	1.70	1.27	1.13	1.07	1.40	1.24	0.90	1.04	1.05	1.08	1.17	1.26	1.29	1.29	1.21	1.03	0.66	0.73	1.40	1.65	1.49	1.44	1.72	1.88	1.63	1.61	1.53	1.37	1.26	1.26	1.33	1.41	1.46	1.50	1.49	1.38	1.19	1.03	0.77	0.67	0.70	1.00	1.14	1.22	1.36	1.46	1.38	1.29	1.26	1.24	1.25	1.25	1.06	1.12	1.34	1.40	1.07	1.14	1.21	1.29	1.35	1.36	1.34	1.30	1.29	1.10	1.19	1.20	1.23	1.41	1.62	1.79	1.95	2.08	2.17	2.17	2.10	2.08	2.05	2.01	1.98	1.96	1.90	1.90	1.98	3.07	2.81	2.71	2.62	2.54	2.46	2.34	2.14	1.34	1.27	1.63	2.59	2.27	2.03	1.85	1.29	0.91	0.35	0.22	0.40	0.75	1.27	1.61	2.08	2.44	2.82	2.88	2.73	2.61	2.25	1.55	0.69	0.65	0.61	1.00	1.18	1.15	1.10	1.08	1.06	1.13	1.10	1.09	1.61	1.86	2.32	2.75	3.59	4.60	6.25	6.21	5.23	4.32	3.74	3.40	3.13	2.90	2.81	2.51	2.26	2.12	2.16	2.86	3.13	3.00	2.74	2.96	2.74	2.98	2.59	2.59
2.39	1.90	1.41	1.21	1.23	1.36	0.31	0.66	0.67	0.71	0.90	1.27	1.38	1.39	1.35	1.23	0.91	0.71	0.91	1.54	1.61	1.41	1.49	1.71	1.83	1.58	1.53	1.40	1.26	1.23	1.26	1.32	1.37	1.43	1.43	1.31	1.09	0.74	0.57	0.52	0.55	0.65	0.82	1.06	1.19	1.40	1.45	1.34	1.28	1.25	1.25	1.26	1.22	0.92	0.89	1.26	1.37	1.46	1.53	1.23	1.30	1.33	1.32	1.29	1.26	1.27	1.07	1.18	1.20	1.29	1.47	1.66	1.79	1.93	2.05	2.11	2.09	2.02	2.00	1.99	1.92	1.88	1.86	1.84	1.82	1.84	2.16	2.23	2.60	2.59	2.56	2.52	2.43	2.22	1.44	1.37	1.64	2.66	2.28	1.97	1.30	1.21	0.85	0.29	0.39	0.78	0.92	1.42	1.80	2.36	3.18	3.17	3.21	2.64	2.37	2.02	1.11	0.60	0.75	0.95	1.19	1.45	1.36	1.29	1.27	1.30	1.32	1.33	1.33	2.00	2.44	2.77	3.41	4.51	6.35	6.00	5.02	3.89	2.98	2.61	2.49	2.51	2.33	2.45	2.25	2.10	2.11	2.24	2.95	2.79	2.68	2.66	3.27	2.50	2.32	2.52	2.52
2.54	2.02	1.50	1.28	1.54	1.39	0.86	0.77	0.71	0.80	1.06	1.45	1.53	1.55	1.48	1.33	1.08	0.86	1.03	1.58	1.65	1.42	1.48	1.71	1.94	1.63	1.44	1.30	1.24	1.24	1.25	1.31	1.38	1.38	1.26	1.02	0.61	0.46	0.47	0.51	0.54	0.61	0.70	0.81	1.09	1.49	1.46	1.36	1.32	1.29	1.25	1.22	1.16	0.86	0.83	1.06	1.40	1.50	1.55	1.61	1.30	1.30	1.27	1.25	1.24	1.26	0.86	1.14	1.27	1.41	1.52	1.63	1.77	1.93	2.05	2.08	2.03	1.96	1.92	1.90	1.83	1.79	1.79	1.78	1.74	1.70	1.70	1.79	2.61	2.65	2.58	2.54	2.44	2.28	2.06	1.54	1.83	2.74	2.49	1.87	1.17	1.08	0.42	0.26	0.51	0.94	1.39	1.59	2.09	2.75	3.50	3.35	3.20	2.48	2.19	1.92	0.87	0.72	0.95	1.26	1.37	1.71	1.04	1.14	1.28	1.33	1.40	1.43	2.08	2.46	2.70	3.14	4.15	6.04	5.85	4.77	3.63	2.70	2.07	1.75	1.82	1.71	2.08	2.02	1.97	1.97	2.11	2.29	2.52	2.68	2.52	2.44	2.39	2.36	1.85	2.55	2.55
2.62	2.10	1.52	1.46	1.61	0.26	1.00	0.97	0.96	1.15	1.62	1.80	1.85	2.08	1.59	1.44	1.34	0.94	1.04	1.51	1.65	1.43	1.50	1.81	2.04	1.68	1.40	1.32	1.28	1.24	1.24	1.34	1.38	1.26	1.07	0.62	0.44	0.45	0.54	0.59	0.61	0.64	0.73	0.90	1.20	1.62	1.52	1.42	1.38	1.29	1.24	1.22	1.18	0.90	0.87	1.14	1.51	1.57	1.58	1.61	1.62	1.60	1.23	1.23	1.24	1.25	1.28	0.97	1.29	1.45	1.51	1.59	1.75	1.91	2.01	1.99	1.94	1.86	1.82	1.80	1.76	1.73	1.71	1.69	1.66	1.61	1.56	1.58	1.66	2.25	2.60	2.54	2.36	2.15	1.90	1.64	2.38	2.90	2.31	1.86	1.12	1.03	0.43	0.37	0.55	1.08	1.52	1.83	2.53	3.30	3.53	3.32	3.07	2.33	2.06	1.84	0.74	0.85	1.11	1.30	1.18	0.99	0.95	1.10	1.70	1.32	1.91	2.05	2.24	2.59	2.86	3.60	5.34	5.81	4.75	3.64	2.82	2.21	1.74	1.66	1.50	1.85	1.80	1.77	1.78	1.89	2.07	2.25	2.38	2.35	2.21	2.03	1.34	1.08	1.79	2.84	2.84
2.65	2.12	1.48	1.93	1.28	0.50	1.08	1.09	1.14	1.48	1.87	1.96	1.95	1.75	1.59	1.46	0.97	0.96	1.04	1.20	1.66	1.58	1.71	2.13	2.15	1.76	1.67	1.86	1.34	1.26	1.27	1.40	1.38	1.19	1.00	0.59	0.51	0.55	0.60	0.68	0.75	0.71	0.89	1.11	1.50	1.79	1.59	1.48	1.40	1.31	1.27	1.28	1.24	1.06	1.07	1.51	1.59	1.60	1.59	1.58	1.57	1.56	1.55	1.23	1.25	1.26	1.32	0.88	1.23	1.37	1.46	1.58	1.73	1.87	1.90	1.89	1.83	1.76	1.70	1.70	1.68	1.65	1.63	1.59	1.58	1.57	1.55	1.58	1.63	1.70	1.80	2.37	2.39	1.65	1.58	2.37	3.02	3.03	2.36	2.02	1.34	1.02	0.54	0.52	0.65	1.36	1.62	2.20	2.99	3.95	3.41	3.15	2.89	2.18	1.97	1.82	0.83	0.93	1.02	1.14	1.05	0.97	1.02	1.58	1.70	1.83	1.98	2.15	2.48	2.73	3.19	4.41	5.91	4.76	3.62	2.79	2.29	1.95	1.71	1.62	1.44	1.74	1.70	1.68	1.74	1.86	2.00	2.13	2.12	1.98	1.64	0.94	0.93	1.02	2.14	3.35	3.35
2.66	1.99	1.86	1.80	1.09	0.79	0.77	1.17	1.22	2.01	2.16	2.23	1.87	1.66	1.50	1.39	0.93	0.96	1.07	1.20	1.74	1.82	1.98	2.29	2.11	1.81	1.74	1.69	1.64	1.37	1.38	1.50	1.44	1.24	1.09	0.96	0.73	0.68	0.66	0.76	0.79	0.95	1.13	1.44	1.98	1.86	1.62	1.51	1.42	1.35	1.35	1.36	1.35	1.40	1.52	1.59	1.58	1.58	1.57	1.54	1.53	1.53	1.53	1.54	1.22	1.26	1.33	1.07	1.21	1.31	1.43	1.57	1.70	1.80	1.80	1.83	1.79	1.68	1.64	1.62	1.61	1.59	1.58	1.55	1.51	1.54	1.55	1.57	1.61	1.67	1.75	1.85	1.93	1.98	2.12	3.24	3.20	2.62	2.40	2.19	1.70	1.46	0.82	0.73	0.79	1.35	1.86	2.68	3.89	3.50	3.10	2.80	2.56	1.93	1.81	0.97	1.41	1.43	1.52	1.05	0.90	0.96	1.50	1.63	1.80	1.97	2.21	2.39	2.66	3.10	4.17	5.71	4.75	3.73	3.11	2.58	2.11	1.81	1.67	1.63	1.48	1.67	1.60	1.61	1.68	1.76	1.85	1.93	1.86	1.28	1.20	0.78	0.85	1.31	2.62	3.68	3.68
2.50	2.06	1.73	1.41	1.16	0.95	0.86	1.27	1.18	1.97	2.14	2.21	1.79	1.55	1.41	1.34	0.93	1.00	1.14	1.30	1.83	2.25	2.38	2.24	2.00	1.88	1.69	1.71	1.71	1.69	1.66	1.71	1.57	1.27	1.67	1.14	1.10	0.83	0.79	0.90	1.03	1.17	1.45	1.74	2.05	1.80	1.63	1.56	1.48	1.43	1.43	1.43	1.44	1.49	1.54	1.53	1.53	1.55	1.53	1.49	1.48	1.50	1.51	1.51	1.50	1.17	1.22	1.25	1.26	1.32	1.41	1.53	1.66	1.75	1.78	1.76	1.71	1.68	1.59	1.58	1.56	1.55	1.54	1.53	1.50	1.50	1.53	1.57	1.62	1.68	1.73	1.79	1.90	2.09	2.45	3.17	2.67	2.47	2.26	2.14	1.78	1.82	1.65	1.54	1.51	1.67	2.24	3.09	3.78	3.14	2.73	2.42	1.76	1.66	1.62	0.73	1.28	1.35	1.45	1.45	0.79	0.94	1.60	1.82	2.02	2.24	2.36	2.63	3.25	4.27	5.38	4.43	3.33	2.69	2.48	2.27	1.96	1.77	1.61	1.57	1.69	1.55	1.51	1.55	1.59	1.92	2.01	2.07	1.14	1.03	0.58	0.68	1.01	1.82	3.05	3.88	3.88
3.02	3.00	1.54	1.28	1.24	1.01	1.29	1.31	1.08	1.69	2.18	2.27	2.08	1.64	1.54	1.37	1.04	1.16	1.27	1.38	2.04	2.35	2.36	2.05	1.87	1.79	1.65	1.71	1.73	1.71	1.65	1.63	1.35	1.44	1.48	1.18	1.21	1.00	0.97	1.07	1.19	1.40	1.72	2.24	1.98	1.76	1.67	1.62	1.54	1.48	1.48	1.46	1.44	1.45	1.45	1.45	1.49	1.51	1.47	1.44	1.45	1.47	1.48	1.45	1.44	1.12	1.20	1.27	1.31	1.34	1.38	1.48	1.62	1.69	1.71	1.66	1.64	1.60	1.57	1.50	1.50	1.49	1.50	1.50	1.47	1.46	1.49	1.55	1.61	1.66	1.70	1.73	1.79	1.91	2.22	2.42	2.33	2.18	2.07	1.70	1.80	1.93	2.02	2.06	2.06	2.23	2.63	3.80	3.28	2.78	2.45	2.19	1.59	1.51	1.46	0.52	1.25	1.39	1.73	1.58	1.58	1.68	1.85	2.06	2.26	2.36	2.64	3.33	4.51	5.48	4.23	3.03	2.25	1.88	1.58	1.48	1.60	1.55	1.79	1.70	1.59	1.73	1.82	1.87	1.92	1.97	1.96	1.07	1.09	0.56	0.50	0.74	1.34	2.51	3.53	3.77	3.77
2.26	2.32	1.89	1.63	1.35	1.05	1.34	1.26	1.15	1.37	2.22	2.27	2.20	2.09	1.89	1.57	1.44	1.36	1.40	1.43	2.11	2.36	2.20	2.01	1.92	1.87	1.86	1.86	1.65	1.65	1.57	1.60	1.81	1.47	1.47	1.52	1.30	1.00	1.09	1.19	1.36	1.67	2.23	2.16	1.90	1.74	1.65	1.57	1.49	1.45	1.44	1.41	1.38	1.37	1.38	1.42	1.45	1.45	1.41	1.39	1.41	1.44	1.42	1.39	1.38	1.06	1.18	1.28	1.32	1.34	1.37	1.44	1.54	1.62	1.60	1.54	1.53	1.53	1.48	1.47	1.41	1.42	1.43	1.42	1.39	1.38	1.43	1.50	1.55	1.58	1.60	1.62	1.64	1.66	1.80	1.73	2.01	2.01	2.04	2.13	1.89	2.05	2.23	2.44	2.64	2.79	3.52	3.54	2.94	2.53	2.28	2.11	1.55	1.48	0.63	0.62	1.59	1.81	1.97	2.04	1.89	1.93	2.09	2.19	2.34	2.57	3.27	4.48	5.27	4.05	2.91	2.10	1.81	1.46	1.14	1.26	1.34	1.66	1.65	1.62	1.75	1.92	1.99	2.02	2.04	2.01	1.57	0.85	0.96	0.31	0.56	0.95	1.89	3.10	3.70	3.23	3.23
1.63	1.84	1.98	1.82	1.46	1.01	1.42	1.48	1.53	1.64	2.35	2.15	2.19	2.25	2.18	1.84	1.86	1.64	1.44	1.42	1.71	2.37	2.20	2.06	2.01	1.94	1.90	1.79	1.76	1.54	1.50	1.63	1.81	1.49	1.69	1.78	1.36	1.04	1.17	1.34	1.62	2.20	2.04	1.99	1.73	1.57	1.47	1.41	1.36	1.35	1.36	1.32	1.29	1.31	1.34	1.38	1.39	1.37	1.35	1.35	1.37	1.37	1.35	1.33	1.33	1.01	1.08	1.21	1.27	1.31	1.34	1.41	1.49	1.52	1.50	1.48	1.47	1.45	1.43	1.39	1.39	1.34	1.34	1.34	1.30	1.29	1.37	1.45	1.48	1.49	1.50	1.50	1.50	1.48	1.50	1.58	1.63	1.98	2.14	2.24	2.30	2.09	2.29	2.54	2.74	2.82	3.59	3.12	2.66	2.37	2.18	2.07	2.00	1.56	0.77	0.92	1.83	1.99	2.09	2.14	2.18	2.11	2.19	2.33	2.49	3.00	4.17	4.95	3.82	2.67	2.01	1.69	1.37	1.17	1.19	1.18	1.51	1.49	1.44	1.44	1.55	1.79	1.92	1.95	1.93	1.61	1.38	1.02	0.41	0.15	0.73	1.35	2.49	3.72	3.39	2.81	2.81
1.47	1.67	1.92	1.91	1.69	1.62	1.77	1.87	1.92	1.88	2.76	2.19	2.24	2.42	2.39	2.05	2.00	1.94	1.48	1.44	1.64	2.35	2.15	2.07	2.02	1.94	1.95	1.83	1.76	1.68	1.71	1.82	1.62	1.63	1.64	1.75	1.37	1.25	1.28	1.49	1.94	2.19	2.00	1.70	1.44	1.28	1.22	1.22	1.21	1.23	1.24	1.21	1.22	1.26	1.29	1.31	1.31	1.30	1.29	1.30	1.30	1.30	1.29	1.27	1.28	0.97	1.00	1.05	1.17	1.25	1.31	1.38	1.45	1.48	1.46	1.43	1.41	1.39	1.36	1.33	1.33	1.27	1.29	1.28	1.25	1.26	1.34	1.40	1.40	1.40	1.42	1.44	1.43	1.40	1.37	1.38	1.44	1.62	2.13	2.27	2.35	2.19	2.32	2.47	2.57	2.75	2.76	2.56	2.63	2.27	2.12	2.04	2.01	1.65	1.04	1.17	1.91	1.96	2.01	2.04	2.09	2.15	2.21	2.36	2.75	3.68	5.04	3.72	2.56	1.87	1.55	1.20	0.86	0.95	1.10	1.37	1.30	1.20	1.13	1.22	1.41	1.54	1.56	1.56	1.53	1.34	1.12	0.88	0.17	0.04	0.98	1.80	2.77	3.60	3.13	2.70	2.70
1.37	1.54	1.84	1.95	1.99	1.99	1.99	1.98	1.94	1.87	2.84	2.45	2.19	2.17	2.11	2.02	2.58	1.93	1.58	1.51	1.81	2.28	2.11	2.11	2.08	2.00	1.96	1.92	1.85	1.77	1.76	1.77	0.74	0.78	1.53	1.78	1.49	1.59	1.46	1.74	2.05	2.00	1.69	1.39	1.17	1.08	1.09	1.11	1.11	1.13	1.14	1.13	1.16	1.21	1.24	1.25	1.24	1.23	1.24	1.24	1.25	1.25	1.24	1.23	1.24	0.91	0.93	0.96	1.04	1.17	1.26	1.35	1.43	1.43	1.40	1.37	1.35	1.33	1.30	1.23	1.28	1.28	1.24	1.23	1.21	1.23	1.30	1.35	1.34	1.34	1.38	1.41	1.40	1.37	1.36	1.39	1.48	1.61	1.78	2.21	2.35	2.48	2.49	2.70	2.68	2.59	2.49	2.40	2.47	2.25	2.12	2.03	2.01	1.67	1.09	1.27	1.87	1.87	1.93	1.93	1.96	1.99	2.12	2.46	3.19	4.19	3.73	2.55	1.76	1.39	1.07	1.32	1.08	1.07	1.13	1.22	1.01	0.89	0.90	1.04	1.37	1.32	1.32	1.27	1.15	1.09	1.04	0.41	0.09	0.69	1.29	2.08	2.96	3.46	3.06	2.78	2.78
1.29	1.42	1.63	1.83	1.95	1.99	1.94	1.86	1.78	1.72	1.84	2.41	2.46	2.12	2.06	1.99	1.95	2.49	1.47	1.51	2.31	2.17	2.09	2.16	2.12	2.08	2.05	1.98	1.88	1.76	1.75	0.86	0.82	0.97	1.68	1.77	1.74	1.73	1.77	2.17	1.84	1.76	1.41	1.16	1.02	1.03	1.10	1.10	1.09	1.10	1.09	1.09	1.12	1.16	1.19	1.19	1.17	1.18	1.19	1.20	1.20	1.20	1.19	1.18	1.18	1.19	0.85	0.90	0.95	1.07	1.19	1.28	1.37	1.37	1.33	1.29	1.28	1.25	1.24	1.24	1.25	1.25	1.19	1.16	1.15	1.18	1.21	1.23	1.22	1.27	1.35	1.39	1.38	1.35	1.36	1.42	1.53	1.62	1.70	1.97	2.26	2.41	2.51	2.51	2.44	2.34	2.24	2.18	2.19	2.20	2.11	2.01	1.99	1.63	1.02	1.69	1.79	1.80	1.84	2.30	1.90	1.95	2.19	2.77	3.72	3.98	2.83	1.74	1.39	1.11	1.37	1.12	1.35	1.37	1.29	1.03	0.82	0.73	0.74	0.92	1.50	1.08	0.49	0.37	0.21	1.01	0.77	0.28	0.58	0.93	1.63	2.27	3.22	3.39	3.03	2.87	2.87
1.59	1.59	1.50	1.65	1.75	1.79	1.77	1.73	1.69	1.65	1.59	2.42	2.29	2.36	1.89	1.91	1.89	1.78	1.33	1.41	2.31	2.13	2.05	2.11	2.12	2.10	2.06	1.97	1.79	1.60	1.66	0.89	0.96	1.15	1.97	1.95	2.16	2.09	2.22	2.02	1.64	1.49	1.20	1.03	0.99	1.06	1.11	1.09	1.08	1.07	1.06	1.05	1.09	1.13	1.14	1.11	1.11	1.12	1.14	1.15	1.14	1.13	1.13	1.12	1.13	1.14	1.15	0.86	0.91	0.94	1.04	1.15	1.26	1.27	1.21	1.19	1.18	1.17	1.17	1.21	1.23	1.23	1.18	1.15	1.08	1.06	1.06	1.03	1.08	1.22	1.35	1.38	1.36	1.33	1.35	1.40	1.47	1.51	1.60	1.97	2.11	2.23	2.28	2.26	2.19	2.13	2.07	2.02	2.02	2.05	2.04	1.97	1.94	1.55	1.50	1.10	1.63	1.67	1.76	2.01	2.29	2.00	2.37	3.17	4.32	3.03	2.01	2.12	1.80	1.12	1.41	1.49	1.39	1.26	1.04	0.83	0.34	0.99	0.75	0.90	1.15	1.27	1.00	0.97	1.59	0.94	0.50	0.51	0.89	1.30	1.97	2.44	3.32	3.28	3.00	3.00	3.00
1.46	1.55	1.50	1.58	1.61	1.59	1.58	1.58	1.58	1.57	1.55	2.58	2.59	2.05	1.86	1.80	1.67	1.17	1.20	1.45	2.51	2.11	2.09	2.15	2.12	2.06	2.07	1.85	1.55	0.96	1.51	1.02	1.09	1.33	2.24	2.17	2.02	2.05	2.18	1.83	1.63	1.26	1.05	0.96	0.99	1.07	1.07	1.06	1.06	1.04	1.02	1.03	1.06	1.06	1.03	1.03	1.04	1.07	1.09	1.10	1.08	1.07	1.07	1.07	1.09	1.10	1.12	0.74	0.84	0.86	0.89	0.96	1.05	1.01	1.00	1.03	1.04	1.06	1.11	1.19	1.22	1.19	1.16	1.09	1.04	0.90	0.84	0.91	1.04	1.26	1.38	1.37	1.32	1.29	1.30	1.33	1.34	1.37	1.54	1.87	1.97	2.01	2.00	1.98	1.96	1.93	1.90	1.86	1.84	1.88	1.93	1.91	1.87	1.46	1.41	0.86	1.50	1.60	1.77	1.92	2.21	2.22	2.62	3.84	3.47	2.42	1.57	1.85	1.69	1.32	1.54	1.56	1.30	1.04	0.31	0.30	0.64	0.93	0.67	1.02	1.12	1.24	1.31	1.39	1.28	0.67	0.35	0.63	1.32	1.69	2.18	2.68	3.23	3.11	2.99	3.15	3.15
1.45	1.56	1.45	1.47	1.45	1.43	1.43	1.44	1.45	1.48	1.50	1.56	2.66	2.07	1.86	1.70	1.48	1.04	1.29	1.68	2.24	1.86	1.67	1.94	2.07	1.92	1.91	1.67	0.79	0.83	1.00	1.11	1.29	2.14	2.38	2.13	1.96	2.11	2.00	1.60	1.36	1.08	0.94	0.91	1.00	1.05	1.04	1.04	1.03	1.01	1.00	1.01	1.00	0.95	0.94	0.99	1.03	1.04	1.06	1.05	1.03	1.01	1.01	1.02	1.03	1.05	0.84	0.85	0.74	0.79	0.83	0.57	0.45	0.50	0.59	0.77	0.88	0.97	1.06	1.16	1.18	1.15	1.12	1.05	0.90	0.75	0.70	0.93	1.15	1.35	1.41	1.35	1.28	1.23	1.22	1.23	1.23	1.30	1.68	1.83	1.87	1.84	1.80	1.79	1.77	1.74	1.68	1.61	1.59	1.66	1.78	1.84	1.83	1.39	1.37	1.34	1.45	1.63	1.88	2.08	2.48	2.66	3.20	3.90	3.08	2.12	2.01	1.57	1.67	1.63	1.62	1.54	1.24	0.96	0.27	0.14	1.09	0.72	0.67	1.10	1.26	1.15	1.11	1.04	0.68	0.37	0.63	1.27	1.77	2.04	2.41	3.13	3.19	2.96	3.05	3.24	3.24
1.56	1.58	1.38	1.36	1.35	1.36	1.37	1.37	1.38	1.40	1.42	1.43	2.39	1.98	1.79	1.62	1.46	1.17	1.55	2.49	1.91	1.65	1.47	1.37	1.87	1.78	1.69	0.66	0.71	0.96	1.21	1.46	2.25	2.51	2.21	1.85	1.84	2.05	1.70	1.35	1.16	0.98	0.91	0.93	1.02	1.03	1.01	1.01	1.00	0.98	0.98	0.98	0.92	0.67	0.71	1.02	1.03	1.03	1.02	0.99	0.96	0.93	0.93	0.96	0.99	1.01	0.80	0.81	0.65	0.71	0.44	0.29	0.22	0.18	0.23	0.37	0.74	0.91	0.99	1.07	1.12	1.13	1.08	0.95	0.81	0.73	0.83	1.15	1.33	1.42	1.41	1.31	1.26	1.18	1.16	1.18	1.24	1.40	1.76	1.81	1.78	1.72	1.68	1.65	1.59	1.50	1.37	1.12	1.07	1.19	2.01	1.72	1.79	1.39	1.37	1.39	1.50	1.75	2.01	2.25	2.87	3.22	3.66	3.24	2.55	2.06	2.04	1.93	1.89	1.90	1.73	1.47	0.70	0.49	0.40	0.52	0.80	0.66	0.88	1.01	0.89	0.80	0.63	0.36	0.18	0.63	1.05	1.66	2.09	2.41	2.93	3.03	2.94	2.83	3.08	3.34	3.34
1.70	1.59	1.39	1.39	1.40	1.40	1.37	1.35	1.35	1.36	1.37	1.39	1.41	2.11	1.71	1.57	1.17	1.31	2.47	1.86	1.61	1.43	1.32	0.97	0.90	0.33	0.72	0.77	1.05	1.50	2.02	2.74	2.60	2.10	1.70	1.61	1.77	1.93	1.52	1.17	1.00	0.92	0.93	0.98	1.03	1.00	0.98	0.97	0.97	0.96	0.95	0.95	0.67	0.67	0.74	1.00	1.01	1.00	0.97	0.92	0.86	0.82	0.83	0.92	0.96	0.96	0.96	0.97	0.80	0.50	0.12	0.13	0.24	0.27	0.19	0.94	0.46	0.81	0.91	0.96	1.03	1.04	0.95	0.86	0.86	0.97	1.19	1.44	1.49	1.46	1.40	1.28	1.25	1.21	1.21	1.30	1.45	1.71	1.77	1.74	1.67	1.61	1.57	1.50	1.36	1.05	0.94	0.94	1.01	1.09	1.21	1.44	1.72	1.43	0.84	1.51	1.67	1.90	2.10	2.37	2.98	3.35	3.10	2.49	2.05	2.12	2.01	1.94	1.85	1.75	1.54	1.25	0.53	0.46	0.44	0.49	0.57	0.88	0.84	0.80	0.66	0.37	0.11	0.08	0.23	0.93	1.37	1.90	2.33	2.95	2.76	2.60	2.25	2.38	2.99	3.33	3.33
1.71	1.61	1.68	1.39	1.42	1.44	1.41	1.37	1.35	1.34	1.34	1.34	1.32	2.27	1.98	1.40	1.09	1.46	2.22	1.81	1.50	1.39	0.97	0.86	0.86	0.84	0.87	1.12	1.63	2.54	2.50	2.11	1.83	1.59	1.49	1.69	1.69	1.92	1.51	1.20	0.97	0.87	0.94	0.99	1.00	0.97	0.94	0.94	0.94	0.92	0.92	0.67	0.63	0.66	0.73	0.80	0.98	0.97	0.90	0.84	0.80	0.58	0.62	0.91	0.95	0.93	0.91	0.93	0.76	0.78	0.23	0.27	0.39	0.90	0.30	0.11	0.29	0.63	0.81	0.84	0.87	0.85	0.84	0.89	1.00	1.15	1.32	1.48	1.49	1.44	1.36	1.24	1.24	1.31	1.47	1.59	1.67	1.71	1.67	1.60	1.54	1.50	1.44	1.31	0.98	0.92	0.98	1.07	1.15	1.19	1.21	1.27	1.45	1.81	1.57	1.67	1.81	1.98	2.10	2.50	3.04	3.15	2.65	2.10	2.09	1.96	1.92	1.88	1.80	1.64	1.40	0.60	0.44	0.46	0.47	0.51	0.58	0.79	0.65	0.57	0.38	0.17	0.17	0.19	0.46	1.18	1.67	2.06	2.90	2.81	2.47	1.72	1.85	2.26	3.00	3.47	3.47
1.66	1.52	1.55	1.54	1.24	1.29	1.32	1.31	1.30	1.29	1.28	1.27	1.25	1.35	2.08	1.28	1.29	1.60	2.17	1.61	1.48	1.38	0.95	0.82	0.80	0.88	1.05	1.47	2.11	1.96	1.74	1.57	1.46	1.43	1.57	1.91	1.84	1.89	1.52	1.26	0.97	0.87	0.96	0.97	0.94	0.92	0.90	0.90	0.91	0.89	0.85	0.59	0.57	0.63	0.70	0.74	0.96	0.93	0.85	0.81	0.80	0.59	0.63	0.76	0.94	0.91	0.88	0.89	0.92	0.74	0.77	0.28	0.85	0.81	0.81	0.13	0.29	0.19	0.62	0.70	0.76	0.81	0.89	0.98	1.08	1.17	1.29	1.42	1.39	1.34	1.29	1.21	1.19	1.35	1.54	1.60	1.61	1.59	1.55	1.50	1.45	1.39	1.31	0.97	0.94	1.03	1.15	1.23	1.27	1.29	1.31	1.35	1.43	1.55	1.65	1.78	1.90	2.01	2.13	2.91	3.24	2.56	2.16	2.12	1.94	1.90	1.91	1.95	2.27	1.92	1.66	0.81	0.41	0.31	0.36	0.38	0.71	0.56	0.46	0.33	0.32	0.35	0.35	0.40	0.54	1.37	1.79	2.67	2.92	2.65	2.26	1.27	1.57	2.30	3.13	3.59	3.59
1.58	1.41	1.39	1.33	1.28	1.01	1.04	1.08	1.12	1.17	1.20	1.21	1.21	1.22	1.50	2.24	1.61	2.13	2.16	1.58	1.42	1.32	0.93	0.88	0.89	1.01	1.27	1.61	2.18	1.72	1.61	1.49	1.38	1.43	1.61	1.77	1.30	1.08	1.31	1.34	1.03	1.11	1.02	0.97	0.91	0.88	0.88	0.91	0.90	0.85	0.59	0.56	0.57	0.65	0.70	0.73	0.92	0.88	0.84	0.82	0.80	0.60	0.62	0.71	0.93	0.90	0.85	0.85	0.88	0.90	0.77	0.18	0.35	0.78	0.80	0.36	0.19	0.43	0.27	0.52	0.68	0.78	0.91	1.02	1.09	1.18	1.31	1.36	1.29	1.23	1.20	1.17	1.15	1.27	1.51	1.51	1.48	1.46	1.45	1.11	1.06	1.00	0.95	0.97	1.06	1.15	1.26	1.16	1.32	1.35	1.41	1.47	1.53	1.60	1.70	1.82	1.92	2.02	2.37	2.75	2.85	2.31	1.89	1.92	1.84	1.85	1.95	2.04	2.09	2.02	1.34	1.12	0.72	0.01	0.44	0.43	0.34	0.30	0.24	0.25	0.43	0.52	0.58	0.69	1.31	1.48	1.84	2.70	2.71	2.46	1.34	1.10	1.78	2.38	3.21	3.65	3.65
1.51	1.36	1.34	1.25	1.15	1.06	0.80	0.86	0.96	1.06	1.13	1.16	1.15	1.20	1.53	2.29	1.89	2.42	1.77	1.43	1.28	1.24	0.90	0.88	0.94	1.08	1.36	1.92	1.91	1.64	1.55	1.45	1.31	1.27	1.18	1.33	1.25	1.10	0.86	1.33	1.44	1.41	1.18	0.97	0.91	0.88	0.92	0.94	0.89	0.83	0.60	0.59	0.64	0.70	0.71	0.71	1.05	0.86	0.84	0.82	0.80	0.61	0.63	0.69	0.89	0.87	0.81	0.82	0.86	0.88	0.91	0.76	0.73	0.74	0.77	0.80	0.41	0.36	0.13	0.37	0.58	0.82	0.93	0.98	1.11	1.23	1.27	1.28	1.22	1.14	1.13	1.11	1.09	1.11	1.13	1.13	1.12	1.11	1.09	1.04	0.99	0.98	1.01	1.13	1.16	1.17	1.18	1.32	1.35	1.39	1.44	1.48	1.54	1.60	1.69	1.78	1.85	2.00	2.62	2.83	2.74	2.25	1.94	1.86	1.81	1.88	1.99	2.02	1.92	1.20	1.04	1.05	1.04	0.19	0.33	0.38	0.30	0.16	0.14	0.28	0.55	0.65	0.73	0.87	1.43	1.57	1.82	2.69	2.49	1.88	1.30	1.06	1.78	2.40	3.21	3.71	3.71
1.37	1.28	1.33	1.20	1.08	0.95	0.89	0.82	0.92	1.02	1.10	1.12	1.14	1.33	1.40	1.41	1.43	1.85	1.68	1.35	1.24	0.90	0.86	0.88	0.97	1.13	1.43	2.28	1.75	1.54	1.40	1.27	1.25	1.22	1.15	1.10	1.01	0.90	0.77	1.30	1.48	1.39	1.08	1.08	0.89	0.93	0.99	0.97	0.88	0.81	0.73	0.63	0.67	0.70	0.70	0.73	1.04	1.02	0.83	0.81	0.80	0.64	0.65	0.67	0.94	0.83	0.78	0.79	0.83	0.86	0.86	0.86	0.71	0.71	0.72	0.74	0.75	0.41	0.35	0.11	0.52	0.79	0.93	0.96	1.10	1.19	1.16	1.25	1.12	1.05	1.03	1.01	0.98	0.96	0.99	1.03	1.07	1.08	1.05	1.01	1.00	1.12	1.11	1.16	1.19	1.20	1.20	1.20	1.38	1.42	1.44	1.46	1.50	1.55	1.62	1.72	1.79	1.95	2.61	3.18	2.67	2.38	2.16	1.99	1.94	1.98	2.00	1.89	1.65	0.89	0.78	0.82	0.66	0.54	0.51	0.56	0.40	0.24	0.35	0.40	0.62	0.74	0.82	1.40	1.44	1.59	1.79	2.61	2.48	1.43	1.38	1.14	1.78	2.33	3.10	3.60	3.60
1.36	1.33	1.45	1.17	1.02	0.97	0.88	0.81	0.89	1.00	1.10	1.13	1.28	1.36	1.25	1.30	1.37	1.48	1.48	1.65	1.36	1.22	0.89	0.95	1.07	1.22	1.54	2.01	1.55	1.38	1.24	1.22	1.08	1.04	0.99	0.97	0.91	0.84	1.15	1.30	1.40	1.34	1.26	0.99	1.10	1.00	1.02	0.94	0.85	0.78	0.78	0.64	0.64	0.67	0.66	0.69	1.00	0.95	0.81	0.79	0.77	0.61	0.62	0.62	0.65	0.90	0.74	0.75	0.79	0.82	0.82	0.83	0.70	0.69	0.69	0.71	0.74	0.77	0.38	0.31	0.83	0.73	0.87	0.93	1.04	1.11	1.07	1.07	1.03	0.99	0.97	0.94	0.93	0.89	0.91	0.96	1.03	1.07	1.07	1.08	1.17	1.14	1.16	1.20	1.22	1.23	1.24	1.39	1.42	1.44	1.45	1.44	1.44	1.48	1.57	1.69	1.85	2.15	3.11	2.81	2.44	2.29	2.20	2.13	2.06	2.01	1.94	1.77	1.53	0.85	0.76	0.76	0.52	0.71	0.60	0.57	0.53	0.52	0.59	0.63	0.72	0.85	0.84	1.38	1.43	1.60	1.78	1.94	2.19	2.12	2.06	1.29	1.80	2.23	2.91	3.44	3.44
1.50	1.41	1.42	1.05	0.97	0.92	0.84	0.75	0.82	0.97	1.12	1.17	1.33	1.26	1.24	1.26	1.19	1.33	1.33	1.34	1.32	1.26	1.25	1.23	1.21	1.34	1.65	1.69	1.34	1.18	1.08	1.10	0.96	0.95	0.92	0.90	0.86	0.82	0.79	0.80	1.32	1.32	1.28	1.19	1.08	1.00	0.93	0.84	1.04	0.67	0.73	0.75	0.60	0.62	0.60	0.62	0.98	0.79	0.78	0.74	0.70	0.68	0.56	0.56	0.57	0.89	0.78	0.82	0.73	0.76	0.77	0.77	0.79	0.64	0.66	0.70	0.73	0.75	0.37	0.36	0.35	0.48	0.83	0.90	0.91	1.03	0.99	0.98	0.94	1.00	0.98	0.85	0.88	0.92	0.96	1.01	1.03	1.08	1.15	1.17	1.38	1.30	1.26	1.27	1.28	1.29	1.30	1.32	1.32	1.47	1.48	1.46	1.45	1.48	1.58	1.80	2.36	3.10	2.31	2.10	1.89	1.87	2.00	1.96	1.93	1.89	1.80	1.61	0.94	0.80	0.75	0.53	0.63	0.67	0.60	0.62	0.76	0.78	0.79	0.77	0.76	0.91	1.40	1.38	1.46	1.64	1.82	1.90	2.86	2.40	2.30	1.73	1.76	2.13	2.76	3.27	3.27
1.51	1.24	1.15	0.90	0.78	0.77	0.72	0.67	0.78	1.00	1.18	1.21	1.26	1.44	1.36	1.19	1.20	1.18	1.10	1.08	1.77	1.28	1.47	1.63	1.68	1.47	2.20	1.35	1.15	1.06	1.01	0.99	0.93	0.88	0.86	0.84	0.82	0.77	0.61	0.63	1.20	1.21	1.23	1.29	1.05	0.93	0.79	0.72	0.95	0.61	0.62	0.72	0.62	0.56	0.56	0.62	1.00	0.75	0.73	0.68	0.65	0.63	0.61	0.49	0.50	0.52	0.73	0.72	0.78	0.71	0.72	0.72	0.73	0.75	0.64	0.68	0.69	0.69	0.45	0.37	0.59	0.22	0.77	0.87	0.93	0.97	1.01	1.01	0.95	0.88	0.86	0.88	0.96	1.07	0.97	1.02	1.07	1.07	1.17	1.20	1.49	1.46	1.37	1.34	1.33	1.34	1.32	1.34	1.37	1.53	1.57	1.58	1.57	1.58	1.70	2.39	2.99	2.25	1.78	1.77	1.51	1.63	1.59	1.62	1.66	1.65	1.59	1.43	0.83	0.76	0.76	0.62	0.40	0.58	0.66	0.72	0.82	0.94	0.86	1.56	0.79	0.98	1.41	1.41	1.53	1.74	1.92	2.01	2.43	2.30	2.06	1.53	1.65	2.07	2.71	3.01	3.01
1.35	1.11	0.96	0.77	0.64	0.62	0.63	0.67	0.85	1.11	1.26	1.34	1.16	1.35	1.25	1.18	1.09	0.99	0.77	0.74	0.87	1.21	1.54	1.67	1.50	1.66	1.01	1.04	1.01	0.95	0.91	0.90	0.86	0.83	0.81	0.79	0.74	0.69	0.50	0.52	1.17	1.14	0.63	1.32	1.09	0.77	0.65	0.65	0.65	0.64	0.54	0.67	0.66	0.52	0.54	0.68	0.91	0.70	0.67	0.63	0.60	0.57	0.56	0.48	0.45	0.48	0.53	0.65	0.70	0.66	0.67	0.67	0.69	0.72	0.61	0.64	0.65	0.65	0.68	0.21	0.66	0.66	0.67	0.80	0.84	0.90	0.97	0.96	0.90	0.83	0.82	0.84	0.94	1.07	1.12	1.22	1.05	1.09	1.14	1.19	1.23	1.55	1.49	1.45	1.40	1.38	1.35	1.39	1.47	1.66	1.73	1.79	1.82	1.83	2.12	2.98	2.53	1.95	1.77	1.44	1.45	1.34	1.35	1.41	1.43	1.43	1.39	1.32	0.84	0.87	0.97	0.12	0.42	0.69	0.77	1.43	0.79	0.95	1.04	0.97	0.90	1.05	1.43	1.47	1.63	1.85	1.98	2.09	2.28	2.03	1.38	1.39	1.60	2.03	2.96	2.77	2.77
1.23	1.01	0.83	0.66	0.53	0.58	0.60	0.72	0.96	1.24	1.29	1.34	1.35	1.26	1.15	1.05	0.81	0.70	0.67	0.77	0.89	1.15	0.82	0.83	0.56	1.38	0.62	0.84	0.89	0.81	0.77	0.78	0.78	0.77	0.74	0.69	0.65	0.62	0.46	0.47	0.63	0.55	0.58	1.16	0.76	0.65	0.60	0.63	0.63	0.59	0.47	0.60	0.62	0.51	0.54	0.89	0.69	0.64	0.60	0.59	0.54	0.73	0.51	0.51	0.41	0.43	0.43	0.73	0.66	0.69	0.62	0.62	0.64	0.67	0.57	0.59	0.60	0.61	0.62	0.61	0.18	0.32	0.25	0.46	0.77	0.81	0.91	0.91	0.99	0.85	0.77	0.72	0.86	1.01	1.12	1.21	1.29	1.32	1.36	1.14	1.53	1.59	1.58	1.57	1.50	1.50	1.49	1.55	1.64	1.78	1.87	1.97	2.04	2.06	2.98	2.54	2.16	1.77	1.56	1.49	1.35	1.29	1.28	1.27	1.26	1.27	1.29	1.31	0.95	1.08	1.22	0.31	0.58	0.82	0.89	0.79	1.52	0.97	1.51	0.97	1.47	1.47	1.49	1.58	1.74	1.89	1.94	2.57	2.11	1.86	1.31	1.39	1.61	1.96	2.87	2.64	2.64
1.14	0.97	0.76	0.56	0.52	0.67	0.77	0.85	1.10	1.30	1.24	1.36	1.28	1.20	1.08	0.98	0.67	0.66	0.71	0.78	0.90	1.16	0.77	1.31	0.56	1.21	0.82	0.71	0.82	0.77	0.73	0.68	0.71	0.71	0.66	0.62	0.59	0.57	0.43	0.42	0.45	0.47	0.57	1.15	0.97	0.72	0.61	0.64	0.61	0.56	0.44	0.53	0.85	0.64	0.59	0.84	0.61	0.74	0.54	0.56	0.50	0.45	0.60	0.47	0.37	0.37	0.40	0.45	0.66	0.63	0.56	0.57	0.58	0.61	0.63	0.53	0.55	0.56	0.56	0.56	0.18	0.19	0.13	0.10	0.45	0.68	0.90	1.03	1.01	0.99	0.97	0.84	0.72	0.86	1.13	1.25	1.32	1.35	1.37	1.40	1.48	1.56	1.62	1.64	1.63	1.69	1.73	1.78	1.81	1.82	1.88	1.95	2.00	2.01	2.34	2.06	1.93	1.70	1.46	1.39	1.30	1.22	1.15	1.11	1.12	1.81	1.31	1.43	1.56	1.24	1.34	0.45	0.68	0.92	0.97	0.92	0.89	0.91	0.94	0.93	1.40	1.48	1.59	1.70	1.82	1.89	2.06	2.73	1.96	1.72	1.30	1.44	1.66	1.90	2.29	2.58	2.58
0.93	0.75	0.57	0.59	0.66	0.71	0.83	0.97	1.22	1.29	1.28	1.30	1.25	1.16	1.03	0.67	0.66	0.68	0.74	0.80	0.92	1.17	1.47	0.84	0.75	0.47	1.19	0.36	0.69	0.77	0.80	0.68	0.72	0.70	0.64	0.59	0.55	0.55	0.40	0.42	0.42	0.45	0.54	1.21	1.02	0.71	0.72	0.62	0.60	0.57	0.49	0.64	0.68	0.67	0.62	0.58	0.52	0.44	0.53	0.53	0.44	0.48	0.35	0.43	0.41	0.33	0.37	0.42	0.67	0.60	0.52	0.52	0.53	0.55	0.58	0.60	0.51	0.52	0.54	0.55	0.45	0.31	0.16	0.14	0.37	0.49	0.59	0.88	1.01	1.05	1.11	1.13	1.03	1.13	1.24	1.30	1.34	1.35	1.35	1.38	1.41	1.49	1.58	1.65	1.71	1.76	1.83	1.84	1.83	1.72	1.75	1.75	1.74	1.71	2.04	1.97	1.83	1.76	1.67	1.45	1.49	1.54	1.72	1.51	1.56	1.69	1.98	1.60	1.70	1.77	1.41	0.58	0.77	1.01	1.55	0.97	1.42	1.36	0.84	0.87	1.39	1.51	1.62	1.72	1.83	1.87	2.17	2.01	2.25	1.31	1.32	1.51	1.69	1.80	2.01	2.78	2.78
0.94	0.83	0.59	0.74	0.67	0.81	0.93	1.13	1.28	1.21	1.33	1.27	1.23	1.12	0.70	0.62	0.64	0.67	0.74	0.82	0.94	1.17	0.84	0.86	0.83	0.60	0.42	0.45	0.52	0.65	0.75	0.73	0.71	0.67	0.61	0.55	0.53	0.27	0.29	0.42	0.42	0.44	0.52	1.18	1.07	1.04	0.72	0.76	0.61	0.59	0.61	0.66	0.67	0.62	0.55	0.42	0.38	0.42	0.52	0.47	0.38	0.33	0.32	0.34	0.40	0.38	0.33	0.37	0.39	0.61	0.58	0.48	0.48	0.50	0.52	0.55	0.48	0.50	0.51	0.53	0.51	0.43	0.11	0.22	0.44	0.57	0.60	0.71	0.94	1.05	1.11	1.19	1.29	1.30	1.33	1.36	1.33	1.33	1.31	1.32	1.35	1.40	1.47	1.54	1.61	1.66	1.68	1.69	1.69	1.68	1.51	1.50	1.46	1.38	1.66	1.70	1.66	1.89	1.82	1.51	1.87	1.04	1.09	1.18	1.73	2.03	1.68	1.77	1.83	1.87	1.90	1.51	0.81	1.06	1.49	1.43	0.84	1.31	1.29	1.32	1.40	1.49	1.57	1.67	1.76	1.75	1.96	2.34	1.41	1.24	1.38	1.54	1.66	1.73	1.93	2.24	2.24
0.99	0.85	0.75	0.79	0.85	0.97	1.15	1.27	1.23	1.13	1.27	1.25	1.19	1.07	0.63	0.58	0.62	0.68	0.74	0.82	0.95	1.16	0.65	0.72	0.78	0.71	0.63	0.69	0.62	0.85	0.66	0.62	0.62	0.41	0.37	0.34	0.33	0.32	0.33	0.29	0.42	0.43	0.47	0.65	1.11	1.08	1.08	0.75	0.61	0.59	0.61	0.63	0.60	0.53	0.47	0.35	0.36	0.42	0.46	0.39	0.34	0.32	0.29	0.32	0.39	0.35	0.29	0.32	0.35	0.38	0.55	0.56	0.44	0.46	0.48	0.51	0.45	0.46	0.47	0.50	0.53	0.41	0.35	0.09	0.37	0.60	0.75	0.81	0.87	1.04	1.10	1.12	1.17	1.28	1.31	1.35	1.39	1.35	1.32	1.28	1.30	1.30	1.32	1.40	1.46	1.51	1.53	1.53	1.51	1.48	1.28	1.27	1.23	1.15	1.11	1.44	1.50	2.08	2.03	1.91	1.06	0.85	0.94	1.41	2.04	2.05	1.87	1.90	1.92	1.94	1.95	1.50	0.82	1.45	1.42	1.38	1.33	1.30	1.29	1.31	1.36	1.43	1.52	1.61	1.65	1.57	1.70	1.56	1.24	1.28	1.41	1.53	1.61	1.74	1.93	2.17	2.17
0.93	0.85	0.83	0.95	1.08	1.21	1.28	1.19	1.04	1.23	1.23	1.22	1.14	0.98	0.55	0.54	0.73	0.66	0.74	0.83	0.97	1.12	1.38	0.55	0.72	0.85	1.23	1.01	0.68	0.79	0.58	0.55	0.37	0.34	0.31	0.31	0.35	0.32	0.30	0.29	0.30	0.39	0.41	0.54	1.11	1.11	1.10	0.72	0.72	0.76	0.58	0.58	0.52	0.45	0.40	0.31	0.34	0.37	0.38	0.32	0.31	0.27	0.26	0.32	0.37	0.30	0.25	0.28	0.31	0.33	0.55	0.51	0.41	0.42	0.44	0.46	0.40	0.41	0.43	0.45	0.48	0.47	0.41	0.27	0.12	0.42	0.64	0.83	0.94	1.03	1.05	1.08	1.09	1.19	1.26	1.32	1.37	1.41	1.37	1.32	1.27	1.25	1.24	1.28	1.33	1.37	1.40	1.39	1.36	1.29	1.07	1.09	1.07	1.03	1.00	1.02	1.14	1.41	1.53	1.39	0.96	0.93	1.13	1.92	2.32	2.20	2.28	1.97	1.96	1.95	1.93	1.45	0.74	1.00	1.32	1.31	1.31	1.31	1.30	1.30	1.34	1.43	1.52	1.58	1.56	1.42	1.31	1.23	1.21	1.30	1.41	1.53	1.60	1.77	2.67	2.16	2.16
0.86	0.88	1.01	1.16	1.23	1.22	1.12	0.94	0.92	1.18	1.21	1.18	1.05	0.59	0.50	0.81	0.69	0.65	0.73	0.84	0.96	1.06	1.16	0.51	0.69	0.94	1.35	0.83	0.57	0.70	0.56	0.56	0.37	0.32	0.29	0.24	0.33	0.29	0.25	0.32	0.27	0.37	0.34	0.59	1.23	1.06	1.05	1.01	0.66	0.55	0.53	0.50	0.45	0.39	0.35	0.33	0.30	0.30	0.30	0.28	0.29	0.26	0.26	0.35	0.32	0.25	0.23	0.23	0.27	0.31	0.35	0.47	0.37	0.37	0.39	0.41	0.43	0.37	0.39	0.41	0.43	0.50	0.47	0.41	0.18	0.35	0.34	0.64	0.87	0.95	0.98	1.02	1.08	1.13	1.18	1.23	1.30	1.32	1.33	1.31	1.25	1.21	1.21	1.22	1.23	1.26	1.27	1.25	1.20	1.14	1.10	0.93	0.94	0.95	1.01	1.10	1.17	1.18	1.27	1.17	1.09	1.19	2.01	2.39	2.47	2.21	2.28	2.01	1.98	1.93	1.86	1.36	0.66	0.78	1.20	1.22	1.24	1.26	1.27	1.30	1.39	1.49	1.56	1.56	1.48	1.32	1.21	1.19	1.24	1.34	1.43	1.54	1.60	1.81	2.16	1.95	1.95
0.90	0.93	1.11	1.17	1.20	1.23	0.91	0.77	0.94	1.18	1.18	1.09	0.66	0.52	0.48	0.75	0.55	0.64	0.73	0.84	0.94	1.02	1.12	0.63	0.69	1.01	1.32	0.71	0.51	0.63	0.57	0.58	0.37	0.31	0.28	0.28	0.16	0.25	0.26	0.25	0.25	0.39	0.41	0.67	1.21	0.92	0.99	0.95	0.50	0.45	0.44	0.40	0.35	0.31	0.30	0.30	0.25	0.24	0.22	0.22	0.24	0.26	0.28	0.31	0.26	0.21	0.21	0.21	0.24	0.28	0.28	0.45	0.32	0.33	0.34	0.36	0.39	0.35	0.36	0.38	0.45	0.40	0.41	0.47	0.23	0.20	0.24	0.21	0.66	0.83	0.93	0.97	1.03	1.06	1.09	1.11	1.15	1.19	1.23	1.22	1.17	1.14	1.14	1.14	1.14	1.15	1.13	1.09	1.05	0.81	0.83	0.85	0.88	0.94	1.06	1.20	1.32	1.37	1.34	1.30	1.28	1.45	2.47	2.52	2.47	2.21	2.28	2.05	1.98	1.88	1.35	1.26	0.51	0.66	0.77	1.07	1.11	1.17	1.24	1.36	1.52	1.60	1.59	1.52	1.41	1.29	1.24	1.26	1.32	1.40	1.47	1.54	1.59	1.86	2.05	1.70	1.70
1.15	1.21	1.29	1.26	1.15	1.02	0.73	0.72	1.08	1.18	0.83	0.70	0.58	0.48	0.85	0.62	0.51	0.42	0.73	0.84	0.92	1.01	1.13	1.34	0.77	1.15	1.10	0.64	0.50	0.60	0.57	0.53	0.31	0.28	0.27	0.11	0.19	0.28	0.24	0.26	0.38	0.39	0.47	0.72	1.01	0.74	0.90	0.86	0.36	0.35	0.32	0.31	0.29	0.27	0.26	0.21	0.21	0.20	0.19	0.20	0.22	0.24	0.26	0.26	0.22	0.19	0.18	0.18	0.20	0.24	0.24	0.46	0.43	0.27	0.30	0.33	0.36	0.32	0.32	0.33	0.35	0.46	0.49	0.47	0.28	0.35	0.44	0.24	0.28	0.57	0.59	0.72	0.99	0.98	0.99	1.00	1.06	1.12	1.16	1.15	1.10	1.05	1.03	1.02	1.03	1.03	1.01	1.00	1.03	1.02	1.05	1.06	0.91	0.99	1.10	1.24	1.39	1.53	1.62	1.61	1.54	1.70	2.58	2.55	2.48	2.16	2.21	2.01	1.91	1.36	1.26	1.17	0.34	0.60	0.97	0.95	1.02	1.13	1.30	1.50	1.63	1.62	1.52	1.42	1.32	1.27	1.27	1.32	1.39	1.45	1.46	1.48	1.55	2.03	1.91	1.56	1.56
1.20	1.18	1.15	1.09	0.98	0.76	0.71	0.80	1.12	0.84	0.74	0.62	0.53	0.52	0.72	0.49	0.48	0.61	0.75	0.84	0.91	1.02	1.12	1.21	1.11	1.25	0.92	0.63	0.78	0.58	0.54	0.31	0.25	0.24	0.26	0.10	0.18	0.22	0.24	0.28	0.40	0.42	0.50	0.74	0.53	0.61	0.80	0.33	0.30	0.26	0.25	0.26	0.26	0.24	0.19	0.18	0.16	0.16	0.17	0.19	0.21	0.21	0.22	0.23	0.20	0.16	0.14	0.15	0.18	0.21	0.20	0.42	0.43	0.45	0.26	0.29	0.32	0.28	0.29	0.31	0.33	0.39	0.42	0.45	0.30	0.58	0.44	0.44	0.33	0.35	0.40	0.45	0.52	0.92	0.89	0.85	0.93	1.02	1.10	1.09	1.04	0.93	0.87	0.84	0.87	0.91	0.96	0.96	1.03	1.03	1.07	1.08	1.11	1.17	1.20	1.20	1.35	1.52	1.68	1.76	1.74	2.31	2.79	2.68	2.50	2.13	2.01	1.92	1.82	1.28	1.20	0.48	0.45	1.00	0.62	0.99	1.06	1.22	1.44	1.60	1.60	1.67	1.42	1.30	1.25	1.24	1.28	1.35	1.42	1.43	1.38	1.42	1.51	2.35	1.84	1.57	1.57
1.21	1.13	1.05	0.71	0.63	0.64	0.75	0.80	0.79	0.76	0.66	0.57	0.49	0.81	0.48	0.35	0.48	0.25	0.78	0.85	0.91	1.03	1.11	1.12	1.31	1.34	0.82	0.59	0.74	0.57	0.52	0.30	0.25	0.23	0.27	0.32	0.17	0.23	0.36	0.30	0.42	0.44	0.57	0.71	0.38	0.60	0.77	0.27	0.30	0.22	0.22	0.24	0.23	0.18	0.16	0.14	0.14	0.14	0.16	0.18	0.20	0.19	0.18	0.23	0.16	0.12	0.11	0.13	0.15	0.17	0.38	0.39	0.40	0.21	0.23	0.25	0.28	0.26	0.27	0.29	0.32	0.34	0.36	0.39	0.31	0.53	0.23	0.21	0.19	0.48	0.49	0.33	0.21	0.54	0.80	0.77	0.81	0.87	0.94	0.94	0.85	0.81	0.78	0.75	0.78	0.87	0.94	0.99	1.00	1.07	1.10	1.11	1.15	1.11	1.12	1.18	1.22	1.38	1.56	1.69	1.74	2.70	2.82	2.56	2.51	2.13	1.98	1.85	1.74	1.22	0.78	0.40	1.09	0.77	1.09	1.13	1.23	1.40	1.56	1.58	1.62	1.70	1.35	1.24	1.21	1.23	1.30	1.37	1.38	1.35	1.33	1.42	1.51	2.33	1.83	1.58	1.58
1.21	1.10	0.69	0.67	0.63	0.66	0.75	0.77	0.72	0.67	0.59	0.51	0.84	0.54	0.36	0.32	0.25	0.24	0.80	0.86	0.93	1.03	1.12	1.16	1.36	1.15	0.75	0.60	0.49	0.57	0.50	0.44	0.25	0.26	0.31	0.35	0.37	0.27	0.37	0.40	0.41	0.44	0.68	0.59	0.43	0.68	0.76	0.26	0.21	0.21	0.21	0.22	0.20	0.16	0.13	0.11	0.12	0.15	0.16	0.16	0.19	0.16	0.19	0.21	0.12	0.11	0.09	0.09	0.11	0.10	0.37	0.13	0.16	0.41	0.20	0.22	0.21	0.24	0.26	0.28	0.29	0.30	0.34	0.32	0.28	0.57	0.22	0.34	0.34	0.15	0.47	0.23	0.42	0.18	0.26	0.60	0.63	0.70	0.76	0.75	0.80	0.82	0.78	0.72	0.72	0.83	0.93	0.99	1.00	1.09	1.10	1.07	1.08	1.05	1.09	1.04	1.13	1.22	1.40	1.55	1.62	2.72	2.19	2.20	2.07	2.01	1.92	1.78	1.23	1.15	0.46	0.76	1.14	1.15	1.18	1.26	1.41	1.56	1.60	1.54	1.74	1.63	1.28	1.22	1.24	1.29	1.34	1.34	1.32	1.33	1.36	1.46	1.56	2.42	1.79	1.47	1.47
1.20	0.76	0.67	0.66	0.63	0.66	0.72	0.71	0.64	0.58	0.52	0.53	0.61	0.37	0.30	0.29	0.21	0.22	0.82	0.88	0.94	1.04	1.14	1.20	1.39	1.08	0.61	0.49	0.50	0.55	0.47	0.41	0.37	0.27	0.34	0.37	0.37	0.32	0.34	0.40	0.39	0.45	0.71	0.47	0.53	0.76	0.76	0.25	0.32	0.20	0.19	0.20	0.18	0.15	0.14	0.12	0.13	0.16	0.15	0.14	0.17	0.13	0.18	0.17	0.26	0.11	0.06	0.05	0.03	0.76	0.08	0.11	0.13	0.15	0.18	0.21	0.23	0.23	0.25	0.26	0.27	0.28	0.28	0.19	0.26	0.70	0.67	0.35	0.31	0.30	0.19	0.57	0.46	0.08	0.16	0.44	0.52	0.50	0.46	0.64	0.76	0.79	0.76	0.68	0.64	0.79	0.90	0.95	1.00	1.05	1.10	1.03	1.00	0.99	0.96	1.03	0.99	1.06	1.23	1.39	1.47	2.27	1.97	1.97	1.83	1.83	1.78	1.65	1.11	1.05	0.38	0.82	1.11	1.15	1.23	1.39	1.57	1.64	1.62	1.81	1.69	1.41	1.20	1.21	1.27	1.32	1.33	1.31	1.33	1.37	1.42	1.52	1.67	2.03	1.66	1.31	1.31
0.85	0.74	0.65	0.63	0.63	0.65	0.65	0.63	0.57	0.50	0.86	0.52	0.33	0.26	0.25	0.26	0.19	0.22	0.84	0.89	0.96	1.07	1.16	1.20	1.41	0.81	0.51	0.45	0.46	0.53	0.45	0.40	0.37	0.28	0.35	0.36	0.34	0.23	0.35	0.38	0.37	0.45	0.68	0.42	0.63	0.78	0.75	0.24	0.20	0.19	0.19	0.19	0.17	0.16	0.16	0.47	0.60	0.13	0.12	0.12	0.13	0.09	0.06	0.07	0.09	0.09	0.06	0.06	0.78	0.32	0.08	0.10	0.12	0.14	0.17	0.21	0.22	0.23	0.24	0.26	0.27	0.29	0.30	0.12	0.20	0.70	0.67	0.26	0.36	0.33	0.33	0.16	0.47	0.38	0.10	0.11	0.41	0.48	0.09	0.38	0.72	0.73	0.75	0.69	0.56	0.64	0.81	0.96	0.98	0.98	1.00	0.94	0.93	0.90	0.87	0.93	0.87	0.90	1.05	1.20	1.32	2.07	1.92	1.66	1.64	1.64	1.61	1.07	1.01	0.32	0.49	1.07	1.11	1.19	1.37	1.59	1.68	1.83	1.89	1.81	1.62	1.29	1.18	1.22	1.27	1.30	1.30	1.31	1.35	1.42	1.48	1.66	2.10	1.47	1.39	1.15	1.15
0.80	0.70	0.61	0.59	0.61	0.61	0.57	0.54	0.58	0.70	0.38	0.23	0.19	0.20	0.24	0.25	0.19	0.24	0.85	0.89	0.97	1.08	1.15	1.17	1.37	1.00	0.83	0.63	0.49	0.51	0.43	0.39	0.39	0.43	0.36	0.35	0.32	0.32	0.35	0.39	0.39	0.48	0.66	0.35	0.61	0.72	0.70	0.24	0.22	0.22	0.23	0.22	0.18	0.16	0.14	0.53	0.56	0.60	0.24	0.13	0.15	0.11	0.08	0.08	0.10	0.12	0.11	0.61	0.77	0.03	0.06	0.06	0.09	0.11	0.14	0.17	0.19	0.21	0.23	0.24	0.26	0.28	0.29	0.32	0.14	0.69	0.37	0.65	0.42	0.39	0.37	0.36	0.16	0.20	0.16	0.56	0.15	0.35	0.18	0.31	0.68	0.68	0.68	0.63	0.50	0.43	0.74	0.89	0.89	0.85	0.82	0.83	0.79	0.77	0.76	0.81	0.75	0.78	0.88	1.02	1.15	2.00	1.86	1.53	1.49	1.46	1.03	0.99	0.99	0.68	0.82	1.13	1.21	1.36	1.60	1.73	2.04	1.96	1.84	1.68	1.38	1.23	1.18	1.21	1.26	1.28	1.30	1.32	1.40	1.52	1.70	1.94	1.18	0.97	1.09	1.01	1.01
0.72	0.63	0.54	0.54	0.56	0.54	0.56	0.68	0.42	0.26	0.20	0.18	0.22	0.24	0.27	0.25	0.21	0.27	0.84	0.88	0.96	1.08	1.15	1.13	1.17	1.22	1.13	0.86	0.66	0.52	0.43	0.40	0.39	0.45	0.38	0.37	0.34	0.34	0.39	0.42	0.43	0.52	0.66	0.35	0.54	0.67	0.66	0.25	0.25	0.25	0.25	0.23	0.19	0.16	0.12	0.52	0.52	0.59	0.22	0.12	0.18	0.15	0.11	0.10	0.12	0.15	0.15	0.60	0.08	0.22	0.02	0.03	0.06	0.09	0.12	0.14	0.17	0.19	0.21	0.23	0.25	0.27	0.28	0.10	0.58	0.68	0.36	0.39	0.42	0.43	0.42	0.40	0.38	0.10	0.10	0.53	0.10	0.04	0.22	0.45	0.01	0.22	0.47	0.51	0.53	0.31	0.28	0.84	0.79	0.66	0.64	0.64	0.66	0.64	0.65	0.71	0.66	0.70	0.79	0.91	1.02	2.07	1.81	1.44	1.39	1.38	1.01	1.03	0.82	0.82	0.92	1.22	1.35	1.54	1.70	2.06	1.98	1.89	1.76	1.57	1.24	1.16	1.19	1.24	1.27	1.31	1.34	1.38	1.50	1.72	1.99	1.17	0.78	0.43	0.93	0.93	0.93
0.65	0.56	0.50	1.02	0.81	0.72	0.60	0.41	0.29	0.26	0.28	0.31	0.32	0.30	0.30	0.29	0.26	0.31	0.82	0.86	0.96	1.08	1.14	1.08	1.00	1.16	1.35	1.04	0.75	0.64	0.46	0.41	0.29	0.36	0.58	0.56	0.49	0.40	0.44	0.44	0.47	0.56	0.71	0.32	0.61	0.70	0.65	0.28	0.31	0.27	0.25	0.22	0.18	0.15	0.11	0.27	0.63	0.57	0.21	0.12	0.22	0.20	0.14	0.12	0.15	0.17	0.19	0.50	0.03	0.11	0.03	0.04	0.06	0.28	0.10	0.13	0.16	0.17	0.19	0.22	0.24	0.25	0.27	0.12	0.53	0.66	0.32	0.34	0.37	0.40	0.43	0.42	0.41	0.42	0.50	0.45	0.31	0.36	0.46	0.46	0.37	0.55	0.59	0.60	0.57	0.51	0.43	0.22	0.59	0.51	0.52	0.55	0.57	0.59	0.61	0.63	0.66	0.65	0.77	0.87	0.96	1.04	1.79	1.40	1.37	1.39	1.07	1.11	0.99	0.57	1.04	1.25	1.40	1.59	1.73	2.29	1.89	1.79	1.64	1.35	1.15	1.15	1.23	1.30	1.33	1.38	1.41	1.48	1.66	2.21	1.40	0.86	0.40	0.24	0.78	0.84	0.84
0.59	0.66	0.72	0.58	0.51	0.43	0.41	0.38	0.36	0.42	0.50	0.52	0.44	0.37	0.35	0.33	0.31	0.33	0.78	0.85	0.96	1.07	1.11	1.02	0.92	0.92	1.09	1.17	0.77	0.57	0.69	0.64	0.29	0.39	0.64	0.63	0.55	0.47	0.49	0.46	0.50	0.60	0.65	0.83	0.83	0.74	0.70	0.70	0.31	0.28	0.25	0.21	0.17	0.14	0.12	0.52	0.57	0.54	0.15	0.12	0.25	0.23	0.20	0.17	0.17	0.20	0.23	0.31	0.52	0.01	0.08	0.08	0.07	0.09	0.11	0.13	0.15	0.17	0.18	0.20	0.22	0.23	0.24	0.17	0.47	0.68	0.30	0.31	0.32	0.35	0.19	0.42	0.44	0.45	0.12	0.32	0.16	0.34	0.50	0.52	0.34	0.52	0.62	0.54	0.49	0.47	0.43	0.15	0.70	0.58	0.50	0.45	0.50	0.56	0.58	0.58	0.61	0.67	0.83	0.93	1.00	1.07	2.21	1.41	1.39	1.42	1.11	1.17	1.19	1.16	1.24	1.30	1.47	1.63	2.00	1.93	1.82	2.08	1.52	1.19	1.12	1.21	1.31	1.39	1.44	1.46	1.50	1.64	2.02	1.46	0.99	0.76	0.63	0.80	0.67	0.73	0.73
1.03	0.80	0.60	0.57	0.55	0.51	0.53	0.54	0.55	0.62	0.67	0.62	0.50	0.43	0.40	0.36	0.33	0.33	0.76	0.84	0.96	1.06	1.07	0.99	0.91	0.89	0.99	1.12	0.65	0.50	0.62	0.68	0.40	0.50	0.67	0.63	0.58	0.60	0.58	0.46	0.51	0.69	0.94	0.51	0.56	0.81	0.71	0.67	0.30	0.31	0.27	0.23	0.18	0.15	0.12	0.51	0.21	0.17	0.15	0.11	0.26	0.30	0.27	0.23	0.22	0.24	0.28	0.32	0.51	0.52	0.05	0.05	0.12	0.11	0.14	0.14	0.15	0.16	0.18	0.19	0.20	0.21	0.23	0.26	0.52	0.63	0.61	0.30	0.31	0.33	0.36	0.39	0.42	0.43	0.42	0.06	0.46	0.50	0.54	0.58	0.59	0.26	0.45	0.40	0.43	0.49	0.45	0.22	0.29	0.48	0.45	0.48	0.54	0.57	0.59	0.59	0.63	0.77	0.97	1.08	1.18	1.29	2.36	1.86	1.50	1.47	1.53	1.20	1.24	1.28	1.33	1.45	1.65	1.81	2.32	2.17	1.79	2.10	1.47	1.15	1.19	1.30	1.42	1.49	1.51	1.51	1.58	1.88	1.51	1.09	0.56	0.43	0.88	0.92	0.76	0.75	0.75
0.86	0.77	0.76	0.80	0.81	0.75	0.78	0.77	0.75	0.73	0.64	0.53	0.48	0.45	0.42	0.37	0.34	0.33	0.75	0.85	0.97	1.04	1.03	0.97	0.92	0.89	0.93	0.74	0.46	0.55	0.55	0.54	0.52	0.60	0.66	0.62	0.62	0.66	0.60	0.48	0.50	0.96	0.93	0.40	0.50	0.85	0.70	0.70	0.33	0.35	0.29	0.24	0.19	0.14	0.11	0.21	0.20	0.11	0.11	0.21	0.26	0.31	0.32	0.29	0.26	0.28	0.34	0.33	0.52	0.21	0.16	0.09	0.19	0.16	0.18	0.18	0.15	0.16	0.17	0.18	0.19	0.21	0.23	0.24	0.18	0.63	0.29	0.27	0.29	0.31	0.35	0.37	0.39	0.41	0.43	0.14	0.20	0.51	0.54	0.56	0.55	0.34	0.10	0.71	0.65	0.56	0.36	0.54	0.38	0.32	0.34	0.42	0.53	0.61	0.65	0.67	0.71	0.92	1.14	1.27	1.40	1.51	1.89	2.07	1.76	1.60	1.55	1.19	1.23	1.30	1.44	1.66	1.83	2.17	2.27	1.91	2.01	1.60	1.46	1.18	1.26	1.40	1.49	1.52	1.54	1.59	1.80	2.47	1.36	0.83	0.34	0.31	0.30	0.74	0.81	0.78	0.78
0.93	0.89	0.94	0.99	0.99	0.91	0.88	0.86	0.76	0.62	0.44	0.37	0.38	0.40	0.39	0.35	0.32	0.30	0.76	0.87	0.96	1.00	1.00	0.97	0.93	0.88	0.91	1.14	0.29	0.54	0.62	0.57	0.63	0.72	0.74	0.74	0.67	0.69	0.60	0.51	0.58	0.86	0.84	0.40	0.54	0.83	0.69	0.69	0.37	0.37	0.28	0.22	0.17	0.13	0.57	0.16	0.52	0.43	0.06	0.22	0.27	0.31	0.35	0.32	0.27	0.28	0.35	0.40	0.36	0.26	0.21	0.17	0.27	0.23	0.24	0.23	0.20	0.16	0.18	0.19	0.20	0.21	0.23	0.22	0.21	0.58	0.28	0.26	0.28	0.31	0.35	0.36	0.37	0.39	0.43	0.37	0.21	0.52	0.27	0.54	0.51	0.34	0.34	0.25	0.59	0.59	0.55	0.60	0.64	0.61	0.28	0.41	0.55	0.66	0.72	0.78	0.84	0.97	1.31	1.39	1.42	1.39	1.44	1.83	2.35	1.74	1.61	1.28	1.28	1.43	1.66	1.86	2.23	2.52	2.13	1.86	1.70	1.54	1.28	1.19	1.33	1.44	1.46	1.53	1.72	2.01	2.53	1.47	0.98	0.59	0.27	0.17	0.05	0.35	0.63	0.71	0.71
0.72	1.09	1.08	1.03	0.98	0.87	0.78	0.70	0.56	0.44	0.40	0.29	0.29	0.31	0.31	0.27	0.25	0.25	0.78	0.89	0.94	0.96	0.97	0.98	0.94	0.86	0.91	1.05	0.35	0.51	0.66	0.68	0.66	0.69	0.70	0.73	0.78	0.68	0.58	0.53	0.59	0.91	0.46	0.45	0.62	0.68	0.64	0.67	0.58	0.27	0.24	0.19	0.16	0.14	0.58	0.12	0.13	0.10	0.06	0.08	0.26	0.32	0.38	0.37	0.34	0.28	0.34	0.43	0.61	0.58	0.28	0.37	0.34	0.31	0.32	0.29	0.24	0.22	0.24	0.21	0.21	0.21	0.23	0.22	0.23	0.50	0.27	0.25	0.27	0.30	0.34	0.36	0.37	0.38	0.42	0.18	0.50	0.27	0.27	0.53	0.51	0.52	0.27	0.58	0.55	0.54	0.55	0.58	0.77	0.84	0.28	0.42	0.58	0.73	0.85	0.94	1.03	1.17	1.35	1.33	1.25	1.13	1.04	1.15	1.36	1.46	1.50	1.41	1.52	1.76	2.24	2.30	2.59	2.15	1.90	1.77	1.63	1.77	1.19	1.23	1.35	1.39	1.43	1.69	2.26	1.72	1.63	1.14	0.45	0.27	0.21	0.13	0.01	0.38	0.45	0.59	0.59
0.77	0.73	1.12	0.93	0.79	0.66	0.51	0.40	0.37	0.40	0.38	0.33	0.25	0.24	0.20	0.12	0.10	0.66	0.80	0.89	0.92	0.93	0.95	0.98	0.94	0.84	0.89	0.99	1.00	0.62	0.81	0.79	0.78	0.78	0.77	0.71	0.70	0.67	0.60	0.59	0.62	0.66	0.62	0.54	0.89	0.53	0.50	0.60	0.47	0.35	0.23	0.17	0.16	0.29	0.64	0.18	0.25	0.27	0.23	0.21	0.25	0.30	0.41	0.44	0.49	0.32	0.39	0.52	0.49	0.46	0.35	0.43	0.30	0.42	0.39	0.37	0.30	0.26	0.27	0.22	0.22	0.22	0.23	0.23	0.24	0.38	0.28	0.24	0.27	0.30	0.34	0.37	0.39	0.13	0.40	0.23	0.48	0.48	0.50	0.52	0.54	0.57	0.62	0.64	0.64	0.34	0.52	0.61	0.58	0.49	0.89	0.39	0.56	0.82	0.98	1.05	1.15	1.24	1.23	1.14	1.03	0.93	0.88	0.96	1.17	1.42	1.59	1.66	1.99	2.31	2.75	2.51	2.09	1.95	1.78	1.66	1.74	1.40	1.16	1.22	1.29	1.33	1.49	2.42	2.03	1.54	1.07	0.50	0.11	0.15	0.18	0.03	0.41	0.37	0.38	0.47	0.47
0.76	1.11	0.95	0.72	0.64	0.57	0.39	0.35	0.34	0.34	0.25	0.27	0.28	0.30	0.26	0.14	0.59	0.68	0.80	0.88	0.91	0.92	0.93	0.96	0.92	0.82	0.82	0.92	0.95	0.96	0.93	0.94	0.90	0.81	0.76	0.75	0.73	0.64	0.63	0.63	0.57	0.63	0.72	0.75	0.91	0.34	0.50	0.39	0.50	0.36	0.25	0.17	0.17	0.28	0.61	0.19	0.33	0.34	0.24	0.21	0.25	0.29	0.38	0.48	0.60	0.55	0.55	0.56	0.52	0.49	0.49	0.36	0.48	0.42	0.47	0.31	0.23	0.33	0.32	0.32	0.23	0.23	0.24	0.24	0.22	0.19	0.27	0.23	0.27	0.30	0.35	0.12	0.16	0.19	0.32	0.26	0.43	0.44	0.49	0.51	0.59	0.63	0.37	0.72	0.76	0.46	0.60	0.70	0.75	0.74	0.65	0.56	0.66	0.98	1.04	1.06	1.13	1.19	1.05	0.94	0.85	0.81	0.83	0.95	1.14	1.35	1.55	1.70	2.19	2.53	2.29	1.97	1.87	1.75	1.65	1.63	1.78	1.18	1.09	1.16	1.24	1.35	1.67	2.44	1.70	1.19	0.52	0.23	0.08	0.21	0.52	0.45	0.42	0.38	0.32	0.31	0.31
1.14	0.89	0.75	0.67	0.61	0.54	0.48	0.36	0.34	0.33	0.31	0.29	0.21	0.23	0.24	0.52	0.61	0.70	0.81	0.88	0.91	0.89	0.88	0.92	0.90	0.81	0.75	0.76	0.89	0.93	0.92	0.89	1.03	0.85	0.74	0.70	0.71	0.66	0.64	0.58	0.58	0.66	0.83	0.99	0.65	0.25	0.27	0.27	0.56	0.40	0.28	0.18	0.17	0.27	0.55	0.21	0.41	0.40	0.26	0.22	0.25	0.29	0.35	0.47	0.66	0.63	0.61	0.60	0.56	0.51	0.40	0.42	0.47	0.48	0.44	0.40	0.34	0.41	0.38	0.36	0.35	0.24	0.24	0.24	0.21	0.18	0.24	0.21	0.28	0.31	0.36	0.41	0.19	0.25	0.29	0.33	0.40	0.43	0.53	0.61	0.64	0.69	0.72	0.73	1.10	1.00	0.90	0.87	0.88	0.91	0.94	0.95	1.07	1.13	1.03	0.97	1.02	1.04	0.96	0.85	0.78	0.74	0.77	1.02	1.17	1.28	1.39	1.52	2.34	2.00	1.99	1.78	1.70	1.62	1.83	1.72	1.50	1.02	1.07	1.18	1.28	1.45	2.19	2.26	1.49	0.80	0.34	0.14	0.08	0.19	0.45	0.44	0.45	0.39	0.38	0.41	0.41
0.95	0.79	0.73	0.65	0.60	0.56	0.49	0.40	0.34	0.31	0.28	0.31	0.33	0.37	0.27	0.55	0.64	0.74	0.83	0.88	0.86	0.81	0.83	0.89	0.89	0.81	0.71	0.69	0.78	0.93	0.94	0.90	0.90	0.97	0.79	0.76	0.74	0.65	0.62	0.64	0.71	0.88	0.81	0.61	0.49	0.15	0.19	0.66	0.63	0.45	0.31	0.20	0.18	0.58	0.52	0.27	0.49	0.47	0.36	0.27	0.25	0.28	0.34	0.45	0.68	0.63	0.63	0.63	0.50	0.46	0.47	0.48	0.50	0.50	0.49	0.49	0.45	0.35	0.44	0.42	0.39	0.26	0.25	0.24	0.21	0.20	0.56	0.18	0.20	0.32	0.37	0.43	0.47	0.49	0.50	0.35	0.40	0.45	0.57	0.65	0.70	0.73	0.74	0.73	0.71	1.17	1.06	1.00	1.03	1.04	1.04	1.06	1.09	0.98	0.82	0.80	0.84	0.87	0.79	0.69	0.64	0.66	0.78	1.09	1.17	1.21	1.27	1.35	1.75	1.92	1.84	1.64	1.76	1.78	1.69	1.44	0.97	1.03	1.19	1.30	1.41	1.64	2.46	2.17	1.52	1.04	0.90	0.69	0.43	0.52	0.42	0.43	0.48	0.49	0.52	0.58	0.58
0.84	0.74	0.71	0.66	0.62	0.65	0.52	0.42	0.33	0.31	0.33	0.44	0.44	0.43	0.40	0.58	0.68	0.77	0.81	0.80	0.77	0.74	0.81	0.89	0.89	0.80	0.71	0.67	0.76	0.92	0.94	0.92	0.90	1.09	0.96	0.85	0.81	0.63	0.59	0.66	0.83	0.80	0.20	0.37	0.20	0.15	0.32	0.53	0.70	0.50	0.36	0.22	0.26	0.57	0.14	0.36	0.55	0.51	0.43	0.43	0.31	0.26	0.31	0.50	0.70	0.69	0.65	0.57	0.20	0.28	0.38	0.45	0.54	0.53	0.53	0.55	0.53	0.48	0.54	0.48	0.45	0.28	0.25	0.25	0.23	0.22	0.52	0.44	0.16	0.18	0.37	0.45	0.50	0.52	0.52	0.30	0.43	0.48	0.59	0.68	0.64	0.77	0.77	0.73	0.68	0.72	1.06	1.03	1.02	0.98	0.92	0.87	0.79	0.63	0.57	0.55	0.59	0.66	0.63	0.58	0.57	0.65	0.82	0.97	1.13	1.13	1.21	1.31	1.41	2.02	1.71	1.67	1.74	1.57	1.24	0.90	0.99	1.27	1.69	1.53	1.64	1.91	2.36	2.37	1.91	1.51	1.20	0.85	0.50	0.46	0.41	0.43	0.53	0.63	0.67	0.67	0.67
0.76	0.68	0.69	0.69	0.64	0.67	0.55	0.45	0.34	0.30	0.40	0.51	0.68	0.52	0.49	0.60	0.69	0.73	0.70	0.66	0.67	0.74	0.84	0.91	0.89	0.79	0.70	0.68	0.78	0.90	0.93	0.92	0.90	0.92	0.97	1.01	0.91	0.67	0.59	0.66	0.92	0.41	0.07	0.34	0.17	0.44	0.58	0.65	0.38	0.59	0.45	0.26	0.22	0.56	0.14	0.43	0.58	0.58	0.56	0.53	0.40	0.27	0.28	0.58	0.26	0.15	0.22	0.34	0.36	0.25	0.58	0.37	0.48	0.57	0.57	0.58	0.60	0.60	0.53	0.55	0.49	0.31	0.27	0.27	0.25	0.22	0.55	0.45	0.42	0.15	0.19	0.46	0.52	0.55	0.54	0.33	0.49	0.52	0.58	0.67	0.77	0.81	0.80	0.74	0.66	0.61	1.10	0.98	0.90	0.82	0.76	0.63	0.50	0.32	0.29	0.28	0.34	0.43	0.51	0.54	0.58	0.70	0.86	0.95	1.11	1.13	1.26	1.39	1.47	1.93	1.52	1.59	1.54	0.91	0.85	0.91	1.16	1.83	1.76	1.83	2.19	2.82	2.59	1.86	1.52	1.20	0.83	0.49	0.48	0.41	0.43	0.45	0.59	0.74	0.79	0.78	0.78
0.81	0.72	0.68	0.70	0.74	0.68	0.56	0.48	0.41	0.38	0.52	0.73	0.74	0.51	0.52	0.58	0.64	0.63	0.57	0.53	0.58	0.72	0.85	0.94	0.90	0.78	0.70	0.71	0.86	0.90	0.91	0.91	0.91	0.92	1.00	0.95	0.90	0.71	0.63	0.67	0.99	0.43	0.19	0.35	0.46	0.58	0.55	0.65	0.53	0.72	0.56	0.33	0.26	0.17	0.20	0.45	0.58	0.63	0.80	0.63	0.44	0.38	0.27	0.46	0.72	0.38	0.73	0.70	0.63	0.60	0.06	0.63	0.50	0.64	0.63	0.62	0.63	0.68	0.66	0.67	0.56	0.51	0.32	0.30	0.26	0.21	0.32	0.21	0.51	0.05	0.19	0.27	0.52	0.57	0.58	0.39	0.41	0.55	0.55	0.62	0.79	0.89	0.85	0.77	0.64	0.56	0.70	0.80	0.77	0.65	0.58	0.45	0.18	0.09	0.31	0.35	0.44	0.50	0.54	0.56	0.63	0.75	0.86	0.93	1.15	1.23	1.42	1.55	1.49	1.62	1.35	1.56	1.18	0.82	0.90	1.03	1.37	2.18	2.22	2.34	2.71	2.59	1.66	1.19	0.81	0.53	0.32	0.27	0.39	0.44	0.50	0.48	0.63	0.84	0.89	0.88	0.88
0.76	0.68	0.70	0.76	0.74	0.64	0.55	0.55	0.55	0.74	1.01	0.99	0.72	0.52	0.46	0.53	0.54	0.51	0.46	0.28	0.52	0.67	0.83	0.95	0.91	0.77	0.70	0.75	0.88	0.91	1.00	1.30	1.31	0.99	0.94	0.97	0.93	0.78	0.69	0.72	1.03	0.68	0.35	0.27	0.58	0.65	0.56	0.67	0.68	0.84	0.69	0.39	0.31	0.21	0.23	0.44	0.58	0.66	0.78	0.74	0.47	0.42	0.29	0.42	0.73	0.27	0.20	0.05	0.67	0.64	0.64	0.56	0.56	0.70	0.68	0.66	0.66	0.80	0.84	0.78	0.66	0.58	0.55	0.33	0.26	0.20	0.41	0.68	0.26	0.21	0.20	0.28	0.32	0.58	0.61	0.63	0.50	0.58	0.52	0.56	0.80	0.98	0.94	0.80	0.63	0.51	0.25	0.32	0.33	0.41	0.51	0.42	0.28	0.42	1.10	0.58	0.75	0.75	0.62	0.53	0.57	0.65	0.70	0.81	1.21	1.40	1.63	1.63	1.39	1.23	1.60	1.46	0.81	0.88	1.01	1.19	1.60	2.23	2.30	2.47	2.68	1.80	1.16	0.69	0.76	0.42	0.07	0.52	0.46	0.52	0.54	0.51	0.53	0.92	0.98	0.97	0.97
0.36	0.36	0.66	0.73	0.70	0.62	0.48	0.55	0.93	0.45	0.38	0.98	0.75	0.52	0.54	0.46	0.54	0.48	0.36	0.21	0.50	0.60	0.79	0.95	0.91	0.77	0.72	0.87	1.30	0.93	0.94	0.97	0.99	1.25	1.15	1.26	1.36	1.27	0.81	0.79	1.02	1.55	0.80	0.43	0.57	0.73	0.60	0.62	0.73	0.81	0.86	0.64	0.34	0.27	0.27	0.44	0.58	0.67	0.79	0.84	0.55	0.49	0.33	0.44	0.36	0.12	0.78	0.79	0.73	0.62	0.70	0.60	0.74	0.45	0.74	0.71	0.78	0.74	0.87	0.76	0.78	0.67	0.60	0.35	0.28	0.22	0.43	0.66	0.78	0.80	0.67	0.17	0.28	0.37	0.63	0.67	0.67	0.59	0.51	0.55	0.83	1.05	1.01	0.85	0.63	0.47	0.22	0.08	0.57	0.57	0.58	0.65	0.73	0.87	1.02	1.07	0.97	0.73	0.50	0.42	0.38	0.54	1.11	0.71	1.03	1.72	1.78	1.55	1.21	1.05	0.96	0.87	0.86	0.95	1.10	1.34	2.02	2.31	2.44	2.51	1.85	1.20	0.55	0.35	0.55	0.42	0.40	0.61	0.59	0.57	0.53	0.53	0.43	0.99	1.06	1.03	1.03
0.36	0.37	0.37	0.35	0.37	0.43	0.39	0.80	0.46	0.38	0.32	0.91	0.58	0.53	0.53	0.53	0.48	0.28	0.23	0.24	0.21	0.55	0.75	0.93	0.91	0.81	0.87	1.26	1.16	0.91	0.93	0.87	1.00	1.01	1.04	1.09	1.01	1.04	0.86	0.84	0.99	1.32	1.33	0.87	0.78	0.84	0.67	0.42	0.67	0.82	1.02	0.71	0.53	0.30	0.30	0.46	0.58	0.68	0.75	0.92	0.30	0.60	0.40	0.69	0.08	0.76	0.80	0.78	0.04	0.70	0.61	0.75	0.78	0.53	0.37	0.76	0.75	0.85	0.80	0.91	0.89	0.78	0.67	0.38	0.32	0.27	0.47	0.69	0.84	0.51	0.48	0.69	0.16	0.32	0.62	0.67	0.68	0.64	0.57	0.59	0.85	1.09	1.07	0.91	0.69	0.50	0.30	0.45	0.68	0.80	0.69	0.80	1.00	1.14	1.16	0.99	0.77	0.51	0.45	0.48	0.93	1.26	1.50	1.25	1.83	1.80	1.62	1.27	1.01	0.93	0.87	0.82	0.88	0.99	1.14	1.43	2.16	2.27	2.29	2.20	1.60	0.93	0.57	0.39	0.21	0.13	0.35	0.74	0.70	0.62	0.53	0.23	0.44	1.05	1.14	1.09	1.09
0.34	0.34	0.33	0.33	0.41	0.49	0.61	0.48	0.38	0.29	0.99	0.62	0.62	0.55	0.56	0.46	0.32	0.19	0.18	0.22	0.19	0.52	0.70	0.88	0.90	1.05	1.26	1.24	0.96	0.94	0.94	0.96	0.97	1.02	1.09	1.04	1.04	1.01	0.86	0.89	0.99	1.17	1.47	1.51	1.29	1.27	1.17	0.38	0.28	0.70	1.02	0.86	0.54	0.54	0.32	0.47	0.59	0.80	0.73	0.36	0.81	0.72	0.74	0.34	0.09	0.22	0.10	0.19	0.43	0.76	0.39	0.77	0.52	0.73	0.91	0.82	0.53	0.89	0.81	0.81	0.94	0.88	0.76	0.68	0.39	0.33	0.51	0.46	0.93	0.81	0.84	0.80	0.67	0.23	0.37	0.64	0.65	0.68	0.53	0.69	0.88	1.11	1.12	0.97	0.77	0.57	0.53	0.15	0.21	0.82	0.81	0.63	0.93	0.95	0.82	0.71	0.57	0.56	0.66	0.82	1.02	1.31	1.62	1.81	1.76	1.53	1.23	1.01	0.87	0.83	0.78	0.78	0.88	1.01	1.12	1.46	1.96	2.12	2.10	2.12	1.87	1.44	1.06	0.72	0.39	0.15	0.37	0.84	0.79	0.67	0.58	0.28	0.47	1.05	1.22	1.22	1.22
0.32	0.32	0.31	0.34	0.46	0.77	0.46	0.39	0.29	0.23	0.84	0.63	0.57	0.49	0.41	0.33	0.26	0.21	0.24	0.24	0.18	0.52	0.69	0.84	0.88	1.34	1.04	1.00	1.00	0.86	0.82	0.82	0.87	0.95	1.02	1.06	1.05	0.94	0.87	0.91	0.99	1.10	1.27	1.49	1.64	1.77	1.73	0.78	0.22	0.55	1.05	1.00	0.67	0.61	0.37	0.47	0.63	0.69	0.69	0.47	0.60	0.85	0.39	0.08	0.14	0.03	0.24	0.45	0.51	0.23	0.80	0.79	0.86	0.96	0.64	0.50	0.90	0.88	0.92	0.91	0.94	0.95	0.87	0.78	0.47	0.41	0.38	0.53	0.82	0.54	0.85	0.92	0.87	0.68	0.19	0.34	0.39	0.68	0.79	0.83	0.94	1.12	1.15	1.03	0.85	0.66	0.55	0.78	0.75	0.77	0.85	0.88	0.32	0.46	0.33	0.39	0.55	0.77	0.98	1.15	1.30	1.49	1.60	1.59	1.46	1.25	1.05	0.86	0.70	0.64	0.62	0.47	0.90	1.03	1.11	1.39	1.89	2.08	2.02	1.97	1.57	1.04	0.57	0.30	0.13	0.52	0.88	0.92	0.88	0.76	0.67	0.33	0.49	0.78	1.09	1.21	1.21
0.30	0.30	0.32	0.39	0.56	0.44	0.36	0.28	0.21	0.98	0.70	0.57	0.51	0.42	0.37	0.30	0.27	0.31	0.33	0.23	0.46	0.54	0.70	0.83	0.87	1.28	1.04	1.02	0.86	0.84	0.80	0.79	0.85	0.94	1.02	1.05	1.04	0.88	0.89	0.91	0.98	1.08	1.17	1.31	1.49	1.81	2.23	1.58	0.42	0.54	1.04	0.85	0.82	0.82	0.74	0.53	0.79	0.65	0.58	0.68	0.47	0.21	0.09	0.13	0.02	0.11	0.30	0.40	0.30	0.27	0.87	0.47	0.87	0.95	0.70	1.09	1.04	0.97	0.95	0.90	0.92	0.97	0.96	0.89	0.57	0.53	0.50	0.44	0.49	0.56	0.82	1.04	0.67	0.94	0.51	0.28	0.35	0.66	0.86	0.99	1.04	1.12	1.16	1.09	0.93	0.79	0.67	0.84	0.93	0.92	0.89	0.87	0.80	0.69	0.84	1.05	0.65	0.95	1.21	1.26	1.23	1.22	1.26	1.36	1.35	1.15	0.94	0.75	0.55	0.42	0.35	0.41	0.51	1.04	1.17	1.34	1.88	2.52	2.12	1.75	1.25	0.60	0.22	0.15	0.66	0.91	0.93	0.97	0.99	0.89	0.76	0.38	0.49	0.73	1.07	1.48	1.48
0.29	0.30	0.35	0.41	0.42	0.35	0.27	0.19	1.01	0.65	0.56	0.52	0.47	0.42	0.36	0.31	0.36	0.41	0.32	0.21	0.48	0.57	0.72	0.84	0.90	1.08	1.03	0.83	0.82	0.81	0.77	0.76	0.74	0.92	0.99	1.01	0.86	0.88	0.90	0.92	0.97	1.04	1.13	1.21	1.31	1.55	2.06	2.39	1.54	0.85	1.07	0.83	1.18	0.38	0.48	0.65	0.75	0.67	0.63	0.74	0.40	0.08	0.05	0.16	0.17	0.07	0.08	0.26	0.95	0.98	0.32	0.54	0.93	0.90	0.77	1.14	1.17	1.11	1.01	0.91	0.90	0.95	0.98	0.97	0.67	0.68	0.68	0.54	0.51	0.70	0.81	0.92	0.72	0.50	0.81	0.41	0.37	0.49	0.90	1.13	1.15	1.15	1.17	1.12	1.00	0.86	0.81	0.91	0.97	0.94	0.88	0.79	0.79	0.83	1.10	1.32	1.33	1.20	1.33	1.15	1.00	0.88	0.96	1.23	1.36	1.01	0.78	0.56	0.35	0.26	0.30	0.35	0.47	0.74	1.23	1.35	1.77	2.28	1.63	1.05	0.79	0.47	0.19	0.10	0.59	0.99	1.01	1.04	1.11	1.05	0.87	0.46	0.72	0.72	1.05	1.49	1.49
0.31	0.33	0.36	1.07	0.33	0.27	0.20	0.16	0.67	0.56	0.53	0.52	0.47	0.40	0.35	0.35	0.38	0.30	0.18	0.40	0.50	0.60	0.74	0.83	0.99	0.92	0.83	0.78	0.77	0.76	0.75	0.63	0.69	0.82	0.96	0.83	0.83	0.88	0.91	0.92	0.96	1.02	1.09	1.15	1.22	1.32	1.67	2.17	2.46	2.06	1.16	1.05	0.60	0.60	0.65	0.71	0.74	0.70	0.70	0.61	0.45	0.33	0.29	0.14	0.24	1.02	0.97	0.53	0.95	1.00	0.44	0.42	0.49	0.80	0.82	1.19	1.25	1.23	1.10	0.94	0.90	0.92	0.95	0.66	0.69	0.79	0.86	0.73	0.51	0.72	0.82	0.99	0.75	0.48	0.54	0.50	0.43	0.61	0.89	1.25	1.26	1.15	1.18	1.15	1.09	0.96	0.90	0.96	0.99	0.91	0.83	0.81	0.81	0.94	0.86	1.28	1.26	1.59	1.27	1.02	0.82	0.72	0.89	1.24	1.33	0.84	0.55	0.34	0.21	0.22	0.30	0.42	0.53	0.79	1.29	1.39	1.85	2.52	1.94	1.40	1.04	0.63	0.31	0.14	0.61	0.62	1.08	1.16	1.24	1.05	0.97	0.61	0.61	0.70	1.02	1.34	1.34
0.34	0.34	0.34	0.32	0.27	0.20	0.15	0.79	0.63	0.55	0.54	0.51	0.47	0.41	0.33	0.30	0.24	0.26	0.33	0.45	0.52	0.64	0.76	0.82	0.96	0.86	0.77	0.73	0.72	0.51	0.52	0.58	0.65	0.71	0.76	0.80	0.50	0.88	0.63	0.70	0.95	0.99	1.05	1.10	1.17	1.24	1.35	1.67	2.12	2.57	1.73	1.56	1.41	1.11	0.85	0.74	0.75	0.79	0.79	0.71	0.62	0.45	0.19	0.47	0.95	0.62	0.53	0.90	0.91	0.97	1.03	1.07	1.08	1.00	0.98	0.80	1.30	1.32	1.19	1.00	0.93	0.91	0.60	0.61	0.64	0.90	0.93	0.92	0.70	0.66	0.80	0.95	0.79	0.50	0.54	0.30	0.43	0.75	1.15	1.34	1.32	1.21	1.18	1.19	1.15	1.07	0.99	0.99	0.98	0.89	0.80	0.81	0.92	1.10	0.84	1.27	1.12	1.41	1.05	0.87	0.74	0.72	0.96	1.21	1.11	0.65	0.36	0.24	0.26	0.30	0.37	0.48	0.60	0.84	1.36	1.46	2.24	3.34	2.10	1.38	0.94	0.51	0.34	0.29	0.71	0.76	0.92	1.08	1.16	1.22	0.83	0.76	0.83	1.10	1.00	1.20	1.20
1.19	1.07	0.27	0.27	0.20	0.13	1.04	0.64	0.59	0.54	0.52	0.49	0.46	0.38	0.31	0.22	0.23	0.23	0.35	0.47	0.55	0.68	0.79	1.18	0.90	0.78	0.71	0.69	0.48	0.46	0.47	0.53	0.61	0.68	0.74	0.39	0.49	0.53	0.59	0.93	0.95	0.97	1.02	1.06	1.12	1.20	1.27	1.35	1.59	2.02	2.44	2.57	2.17	1.64	1.01	0.76	0.84	0.93	0.97	0.88	0.58	0.19	0.33	0.77	0.84	1.05	1.05	0.86	0.84	0.92	0.99	1.03	1.05	1.11	1.16	1.35	1.36	1.41	1.28	1.10	0.99	0.60	0.57	0.58	0.61	0.70	0.75	0.98	0.88	0.82	0.90	1.01	0.81	0.55	0.52	0.56	0.42	0.83	1.26	1.44	1.38	1.27	1.22	1.25	1.25	1.18	1.07	1.00	0.94	0.87	0.82	0.92	0.38	0.63	0.83	1.15	1.38	1.16	0.92	0.78	0.62	0.59	0.84	1.00	0.79	0.34	0.21	0.27	0.33	0.35	0.37	0.52	0.62	0.85	1.44	1.56	2.45	3.76	1.98	1.36	0.92	0.64	0.58	0.49	0.54	0.75	1.02	1.19	1.24	1.51	0.83	1.40	1.39	1.15	0.98	1.10	1.10
1.19	0.28	0.23	0.21	0.14	0.10	0.71	0.58	0.55	0.50	0.48	0.48	0.42	0.34	0.31	0.26	0.24	0.29	0.42	0.49	0.57	0.69	0.80	0.95	0.84	0.72	0.66	0.45	0.45	0.44	0.45	0.50	0.57	0.62	0.20	0.11	0.42	0.25	0.91	0.93	0.72	1.00	0.82	1.05	1.09	1.11	1.25	1.32	1.43	1.63	1.94	2.35	2.58	2.12	1.48	1.13	1.15	1.08	1.05	0.72	0.16	0.24	0.39	0.30	0.12	1.00	1.05	0.86	0.81	0.88	0.95	1.01	1.03	0.95	1.31	1.42	1.43	1.45	1.37	1.21	1.09	0.64	0.58	0.58	0.61	0.63	0.82	1.09	0.94	0.94	0.98	0.92	0.91	0.77	0.56	0.68	0.44	0.91	1.38	1.55	1.49	1.39	1.30	1.33	1.34	1.25	1.11	0.99	0.91	0.87	0.37	0.46	0.61	0.91	1.16	1.24	1.18	1.04	0.92	0.62	0.28	0.22	0.47	0.47	0.29	0.17	0.25	0.34	0.38	0.36	0.39	0.52	0.68	0.80	1.16	1.63	2.23	3.21	2.95	1.80	1.37	1.00	0.82	0.64	0.67	0.90	1.14	1.28	1.30	1.41	1.40	1.43	1.32	1.24	0.99	1.03	1.03
1.21	0.56	0.19	0.16	0.08	1.08	0.67	0.59	0.54	0.51	0.53	0.55	0.50	0.42	0.36	0.24	0.23	0.37	0.44	0.50	0.59	0.70	0.94	0.96	0.85	0.70	0.42	0.40	0.42	0.41	0.42	0.48	0.55	0.59	0.06	0.05	0.79	0.86	0.89	0.90	0.93	0.72	0.79	0.86	0.94	1.15	1.22	1.30	1.40	1.49	1.62	1.91	2.34	2.69	2.40	2.15	1.72	1.13	0.71	0.13	0.25	0.23	0.09	0.16	0.12	0.15	1.06	0.92	0.81	0.82	0.87	0.94	1.01	1.11	1.32	1.46	1.47	1.48	1.43	1.32	1.20	1.07	0.73	0.67	0.68	0.66	0.79	0.93	0.92	0.97	1.03	0.92	0.79	0.82	0.69	0.73	0.44	0.85	1.37	1.66	1.69	1.57	1.41	1.40	1.39	1.26	1.12	1.00	0.92	0.91	0.54	0.61	0.75	1.13	1.17	1.01	0.95	1.03	0.89	0.48	0.25	0.25	0.51	0.59	0.45	0.30	0.32	0.39	0.39	0.35	0.39	0.56	0.72	0.87	1.29	1.66	1.93	2.83	2.36	1.31	1.01	0.93	0.79	0.61	0.65	1.00	1.21	1.41	1.64	1.47	1.49	1.54	1.41	1.28	1.04	1.03	1.03
1.10	1.08	0.16	0.11	0.06	0.90	0.66	0.60	0.56	0.57	0.62	0.62	0.53	0.41	0.34	0.25	0.23	0.38	0.44	0.50	0.59	0.74	0.93	0.98	0.89	0.74	0.43	0.37	0.38	0.41	0.37	0.17	0.08	0.11	0.11	0.18	0.08	0.79	0.84	0.86	0.86	0.55	0.41	0.48	0.91	1.01	1.22	1.28	1.34	1.41	1.50	1.66	1.99	2.44	2.72	2.67	2.18	0.97	0.31	0.31	0.25	0.06	0.09	0.07	0.93	0.09	1.07	1.01	0.86	0.79	0.78	0.81	0.91	1.08	1.29	1.46	0.99	1.47	1.44	1.38	1.34	0.92	0.80	0.77	0.70	0.64	0.78	0.96	1.22	1.27	1.03	0.95	0.79	0.81	0.85	0.70	0.53	0.72	1.23	1.70	1.93	1.80	1.55	1.45	1.38	1.25	1.13	1.04	0.96	0.93	0.94	0.86	0.95	1.12	0.80	0.68	0.76	0.73	0.26	0.32	0.43	0.47	0.56	0.54	0.51	0.33	0.42	0.45	0.37	0.36	0.42	0.59	0.77	0.93	1.39	1.71	1.92	2.58	3.48	1.97	1.18	0.93	1.31	0.89	0.73	1.13	1.64	1.74	1.68	1.61	1.59	1.62	1.55	1.42	1.12	1.06	1.06
0.25	0.92	0.27	0.10	0.11	0.76	0.65	0.57	0.59	0.64	0.64	0.58	0.46	0.41	0.11	0.26	0.34	0.39	0.44	0.48	0.56	0.81	0.93	1.01	0.93	0.80	0.48	0.39	0.38	0.33	0.32	0.19	0.22	0.19	0.04	0.10	0.04	0.76	0.46	0.49	0.37	0.17	0.28	0.44	0.50	0.94	1.07	1.19	1.29	1.37	1.44	1.56	1.77	2.08	2.41	2.68	2.47	1.30	0.52	0.33	0.18	0.21	0.14	0.18	0.06	1.03	1.13	1.12	0.97	0.83	0.75	0.57	0.58	0.81	0.99	1.36	1.24	1.16	1.44	1.42	1.16	1.12	1.00	1.21	1.02	0.67	0.79	0.85	0.82	0.87	0.99	0.98	0.85	0.78	1.17	0.92	0.69	0.53	1.09	1.66	2.13	2.41	2.02	1.47	1.36	1.25	1.14	1.06	1.00	0.93	0.92	1.03	0.99	0.78	0.51	0.47	0.25	0.89	0.85	0.84	0.03	0.43	0.58	0.76	0.81	0.69	0.51	0.39	0.36	0.43	0.49	0.60	0.78	1.00	1.53	1.93	2.06	2.53	3.64	3.57	2.35	2.09	1.81	0.84	1.16	1.16	1.69	1.74	1.69	1.65	1.69	1.67	1.58	1.40	1.24	1.08	1.08
0.28	0.29	0.26	0.19	0.57	0.29	0.58	0.55	0.61	0.61	0.59	0.53	0.51	0.47	0.12	0.17	0.34	0.32	0.43	0.46	0.52	0.60	0.83	1.01	0.94	0.84	0.54	0.44	0.40	0.34	0.38	0.23	0.33	0.12	0.07	0.07	0.12	0.37	0.44	0.42	0.32	0.11	0.27	0.37	0.45	0.53	0.63	0.75	1.31	0.93	1.02	1.52	1.64	1.83	2.08	2.47	3.07	1.82	0.94	0.42	0.40	0.28	0.13	0.19	0.58	0.68	1.24	1.24	1.09	0.94	0.82	0.45	0.86	0.70	0.85	1.05	1.24	1.18	0.98	1.47	1.25	1.37	1.41	1.39	1.16	1.02	0.95	0.80	0.74	0.80	0.96	1.00	0.94	0.83	1.16	0.98	0.93	0.88	1.17	1.76	2.30	2.56	2.09	1.86	1.38	1.24	1.13	1.06	1.01	0.92	0.88	1.04	0.89	0.72	0.59	0.37	0.12	0.90	0.91	0.97	1.00	1.04	0.44	0.79	0.89	0.68	0.41	0.35	0.41	0.47	0.54	0.62	0.81	1.21	2.07	2.02	2.14	2.55	3.63	4.19	3.66	1.93	1.38	1.43	1.86	1.28	1.80	1.69	1.54	1.51	1.57	1.46	1.40	1.64	1.47	1.22	1.22
0.26	0.25	0.21	0.13	0.17	0.17	0.13	0.15	0.54	0.59	0.57	0.57	0.54	0.46	0.40	0.17	0.35	0.38	0.40	0.43	0.45	0.55	0.75	1.02	0.95	0.66	0.58	0.49	0.44	0.38	0.34	0.25	0.27	0.32	0.21	0.12	0.14	0.37	0.45	0.42	0.16	0.14	0.23	0.26	0.33	0.48	0.62	0.73	0.85	0.90	1.00	1.13	1.57	1.70	1.90	2.25	3.01	2.63	1.57	0.77	0.55	0.29	0.29	0.24	0.29	0.88	1.10	0.97	1.22	1.08	0.93	0.49	0.60	0.81	0.96	1.16	1.20	1.35	0.87	1.21	1.22	1.55	1.62	1.57	1.30	1.14	1.16	0.74	0.63	0.70	1.10	1.01	1.00	0.94	0.83	0.90	1.04	1.15	1.45	2.08	2.51	2.57	2.14	1.96	1.76	1.21	1.09	1.04	1.01	0.96	0.93	0.93	0.91	0.83	0.74	0.98	0.50	0.38	0.22	0.20	1.12	1.09	1.09	0.50	0.51	0.38	0.33	0.38	0.42	0.49	0.68	0.96	1.53	1.88	2.23	2.43	2.48	2.70	3.20	4.21	4.96	3.48	2.53	1.94	2.05	1.33	1.56	1.62	1.81	1.73	1.41	1.18	1.37	1.73	1.64	1.40	1.40
0.23	0.20	0.10	0.13	0.15	0.16	0.15	0.18	0.20	0.56	0.59	0.62	0.58	0.57	0.44	0.18	0.32	0.36	0.37	0.38	0.41	0.52	0.71	1.00	0.76	0.68	0.61	0.54	0.49	0.41	0.22	0.20	0.39	0.37	0.28	0.12	0.16	0.36	0.47	0.44	0.18	0.07	0.15	0.21	0.26	0.29	0.42	0.59	0.71	0.88	1.01	1.13	1.27	1.63	1.78	2.02	2.62	3.42	2.54	1.38	0.78	0.68	0.37	0.27	0.36	0.89	1.08	1.11	0.95	1.23	0.88	0.60	0.61	0.86	1.10	1.39	1.16	1.38	0.79	1.09	1.08	1.60	1.83	1.41	1.49	1.30	1.24	0.70	0.53	0.42	0.45	0.86	1.01	1.04	0.92	0.83	0.90	1.13	1.50	2.23	2.74	2.53	2.15	2.01	1.75	1.14	1.03	1.01	1.03	1.02	0.99	1.09	1.09	0.57	0.99	0.94	1.03	0.97	0.97	1.06	1.16	1.08	0.72	0.10	0.56	0.55	0.23	0.39	0.52	0.57	1.41	1.53	1.68	1.95	2.23	2.13	1.96	2.07	2.32	2.87	4.10	4.91	4.17	3.39	2.45	1.49	1.42	1.78	2.08	1.97	1.55	1.29	1.40	1.72	1.66	1.67	1.67
0.19	0.11	0.10	0.13	0.15	0.19	0.21	0.20	0.21	0.23	0.60	0.65	0.66	0.60	0.51	0.26	0.30	0.33	0.34	0.24	0.39	0.50	0.68	0.78	0.77	0.70	0.64	0.57	0.53	0.42	0.15	0.16	0.31	0.41	0.34	0.10	0.19	0.44	0.50	0.45	0.21	0.11	0.07	0.10	0.10	0.13	0.19	0.33	0.58	0.87	1.04	1.14	1.26	1.61	1.70	1.84	2.12	2.93	3.41	2.45	1.46	1.00	0.68	0.54	0.48	1.08	1.22	1.01	1.17	1.21	1.00	0.81	0.62	0.74	1.09	1.44	1.66	1.47	0.79	1.24	0.98	1.57	1.97	1.64	1.67	1.45	1.30	1.08	0.52	0.27	0.61	0.76	0.90	0.77	1.07	1.09	0.61	0.84	1.09	1.79	2.89	3.09	2.01	1.93	1.67	1.45	1.00	1.01	1.08	1.08	1.06	1.07	1.20	1.16	0.99	1.01	1.08	0.99	0.92	0.98	1.06	1.01	0.56	0.26	0.71	1.22	0.68	0.22	0.95	0.60	1.49	1.61	1.76	1.94	2.10	2.05	1.90	1.93	2.09	2.36	2.96	4.17	5.14	4.55	3.42	1.92	1.65	1.95	2.24	2.24	1.78	1.56	1.58	1.78	2.01	1.72	1.72
0.17	0.10	0.11	0.12	0.18	0.20	0.21	0.22	0.22	0.22	0.26	0.69	0.68	0.69	0.24	0.25	0.28	0.31	0.31	0.19	0.38	0.49	0.62	0.73	0.75	0.71	0.65	0.59	0.50	0.38	0.11	0.06	0.22	0.37	0.27	0.03	0.24	0.48	0.40	0.16	0.21	0.40	0.34	0.35	0.41	0.38	0.32	0.37	0.55	0.79	0.95	1.06	1.17	1.58	1.66	1.76	1.88	2.32	3.28	2.98	2.34	1.59	1.32	1.07	0.80	1.23	1.40	1.26	1.17	1.35	1.34	1.13	0.81	0.65	1.02	1.38	1.72	1.51	0.84	1.12	1.02	1.57	2.13	1.82	1.78	1.56	1.36	1.14	0.57	0.52	0.54	0.59	0.72	0.87	0.94	0.91	0.82	0.78	0.84	1.14	2.44	3.28	2.64	1.92	1.61	1.45	1.02	1.07	1.15	1.15	1.12	1.16	1.17	1.26	0.97	1.01	0.65	0.96	0.82	0.81	0.89	0.73	0.58	0.53	0.71	0.85	0.74	0.50	0.53	0.78	1.47	1.67	1.83	1.94	1.96	1.92	1.84	1.84	1.60	2.16	2.50	3.12	4.51	5.38	4.99	3.07	2.19	2.19	2.31	2.34	2.19	2.07	2.23	2.28	1.96	1.61	1.61
0.12	0.10	0.11	0.11	0.17	0.20	0.21	0.23	0.23	0.24	0.25	0.28	0.68	0.24	0.23	0.24	0.26	0.28	0.44	0.30	0.36	0.35	0.57	0.66	0.71	0.70	0.66	0.57	0.48	0.31	0.17	0.17	0.21	0.26	0.23	0.07	0.19	0.34	0.15	0.29	0.47	0.59	0.59	0.60	0.61	0.60	0.57	0.54	0.58	0.73	0.84	0.93	1.06	1.22	1.64	1.76	1.84	2.05	2.64	3.84	3.36	2.36	1.62	1.40	1.10	1.33	1.72	1.66	1.55	1.31	1.43	1.27	0.98	0.80	1.13	1.52	1.69	1.50	1.29	0.91	1.14	1.63	2.26	1.94	1.82	1.61	1.45	1.23	1.06	0.59	0.57	0.54	0.10	0.71	0.28	0.81	0.48	0.94	0.94	0.97	1.71	3.23	2.96	2.45	1.73	1.60	1.16	1.21	1.23	1.22	1.19	1.22	1.21	1.10	1.24	0.87	0.96	0.91	0.69	0.84	0.72	0.68	0.87	0.96	1.09	1.16	0.95	0.67	0.57	0.75	0.94	1.64	1.33	2.00	1.93	1.52	1.38	1.28	1.35	1.64	2.23	2.60	3.36	4.69	5.10	4.21	3.17	2.69	2.54	2.63	2.84	2.13	2.31	2.27	1.97	1.66	1.66
0.10	0.09	0.09	0.10	0.16	0.19	0.21	0.23	0.24	0.26	0.26	0.27	0.30	0.22	0.23	0.22	0.23	0.48	0.45	0.16	0.21	0.28	0.39	0.52	0.62	0.65	0.61	0.55	0.53	0.23	0.20	0.20	0.13	0.22	0.23	0.10	0.09	0.16	0.23	0.40	0.52	0.64	0.64	0.66	0.70	0.71	0.70	0.67	0.67	0.76	0.86	0.96	1.44	1.21	1.61	1.77	1.91	2.05	2.44	3.77	3.43	2.56	1.59	1.37	1.05	1.49	1.73	2.05	1.56	1.29	1.16	1.23	1.12	1.09	1.32	1.77	1.65	1.00	0.92	1.11	1.23	1.69	2.39	2.09	1.48	1.63	1.53	1.34	1.16	1.09	1.03	0.91	0.78	0.34	0.06	0.65	0.16	1.03	1.11	1.08	1.36	2.64	4.16	3.07	2.25	1.97	1.92	1.41	1.34	1.29	1.25	1.24	1.20	1.11	1.01	0.92	1.03	0.13	0.83	0.79	0.34	0.62	1.02	1.19	1.25	1.15	0.92	0.72	0.62	0.67	0.90	1.55	1.81	2.00	2.02	1.39	1.24	1.10	0.99	1.02	1.32	2.31	2.75	3.57	4.50	4.58	4.13	3.49	3.15	3.23	2.84	2.64	2.32	2.23	2.00	1.78	1.78
0.09	0.07	0.07	0.08	0.12	0.17	0.20	0.23	0.24	0.26	0.27	0.29	0.30	0.31	0.22	0.24	0.24	0.49	0.25	0.16	0.41	0.23	0.33	0.45	0.55	0.59	0.57	0.51	0.43	0.21	0.24	0.29	0.28	0.30	0.26	0.17	0.12	0.13	0.24	0.39	0.57	0.73	0.72	0.76	0.84	0.90	0.93	0.90	0.84	0.87	0.93	1.39	1.47	1.54	1.61	1.76	1.97	2.17	2.50	3.55	4.26	4.14	3.10	2.32	2.32	1.60	1.74	2.06	1.30	0.93	1.01	1.54	1.19	1.34	1.32	1.76	1.70	1.32	0.96	1.00	1.25	1.74	2.47	1.97	1.55	1.60	1.59	1.47	1.28	1.17	1.12	1.03	0.58	0.83	0.65	0.46	0.64	0.44	1.20	1.21	1.25	2.03	3.72	4.18	3.02	2.53	2.37	1.66	1.47	1.36	1.28	1.22	1.17	1.10	1.02	1.41	1.31	0.80	0.28	0.93	1.02	0.35	0.91	1.23	1.29	1.16	0.93	0.80	0.74	0.73	0.91	1.11	1.23	1.33	1.34	1.35	1.68	1.83	1.61	1.32	1.32	1.63	2.63	3.14	3.89	4.43	4.34	4.00	3.60	3.51	2.94	2.68	2.36	2.21	1.97	1.78	1.78
0.08	0.06	0.06	0.07	0.10	0.14	0.20	0.23	0.24	0.26	0.27	0.29	0.31	0.31	0.19	0.21	0.21	0.16	0.40	0.43	0.15	0.20	0.30	0.54	0.57	0.61	0.61	0.54	0.35	0.25	0.24	0.14	0.27	0.37	0.31	0.30	0.32	0.32	0.42	0.56	0.73	0.85	0.90	0.98	1.06	1.13	1.13	1.11	1.09	1.14	0.96	1.38	1.48	1.57	1.63	1.74	1.96	2.19	2.65	3.51	4.33	4.50	3.51	2.22	2.08	2.12	1.99	1.58	1.38	1.83	0.87	1.16	1.20	1.52	1.46	2.11	1.38	1.20	1.12	1.08	1.28	1.76	2.48	1.86	1.13	1.21	1.69	1.63	1.43	1.22	1.11	0.92	0.67	0.67	0.68	0.67	0.74	0.27	1.12	1.21	1.23	1.71	3.07	4.09	3.64	3.15	2.73	2.31	1.59	1.39	1.24	1.17	1.14	1.08	1.47	1.47	1.38	1.06	0.73	0.53	0.67	0.78	0.86	1.04	1.38	1.28	1.09	0.99	0.90	0.81	0.91	0.96	0.94	0.83	1.01	1.56	2.11	2.45	2.45	2.10	1.83	1.96	2.37	3.04	3.59	4.23	4.40	4.33	3.61	3.11	2.96	2.70	2.41	2.26	1.94	1.69	1.69
0.06	0.04	0.06	0.07	0.10	0.14	0.20	0.22	0.23	0.25	0.27	0.29	0.31	0.32	0.56	0.16	0.10	0.33	0.11	0.09	0.13	0.20	0.61	0.36	0.58	0.58	0.60	0.52	0.32	0.26	0.21	0.24	0.28	0.40	0.41	0.46	0.53	0.64	0.76	0.80	0.85	0.90	0.99	1.11	1.18	1.20	1.22	1.25	1.26	1.28	1.35	1.41	1.50	1.60	1.68	1.76	1.92	2.15	2.65	3.34	4.43	5.00	3.72	2.80	2.74	2.92	2.48	1.53	1.26	1.03	0.90	1.55	1.25	1.39	1.53	1.72	1.54	1.42	1.43	1.38	1.46	1.87	2.21	1.50	1.04	1.33	1.41	1.81	1.56	1.23	0.59	0.60	0.98	1.13	1.06	1.04	0.97	0.85	0.59	0.71	1.22	1.54	2.51	3.66	4.23	3.66	2.87	2.42	1.67	1.39	1.19	1.12	1.11	1.07	1.53	1.54	1.44	1.32	0.44	0.61	0.52	0.18	0.11	0.39	0.45	1.11	1.25	0.99	0.81	0.77	0.78	0.73	0.52	0.28	0.80	1.26	1.69	2.12	2.34	2.24	2.09	2.04	2.92	3.12	3.45	4.01	4.49	4.66	3.89	3.21	2.97	2.74	2.47	2.33	1.99	1.72	1.72
0.05	0.03	0.05	0.08	0.11	0.17	0.20	0.23	0.24	0.25	0.27	0.29	0.31	0.33	0.35	0.36	0.38	0.05	0.07	0.04	0.11	0.18	0.64	0.61	0.58	0.55	0.52	0.41	0.36	0.23	0.27	0.25	0.31	0.47	0.44	0.46	0.55	0.72	0.88	0.93	0.97	0.96	0.99	1.07	1.12	1.13	1.18	1.23	1.30	1.36	1.43	1.47	1.52	1.61	1.70	1.77	1.89	2.12	2.45	2.80	3.71	4.59	4.64	4.05	3.76	3.73	2.65	1.77	1.58	1.15	0.87	0.79	1.47	1.82	1.53	1.69	1.58	1.53	1.69	1.95	2.27	2.08	1.69	1.46	1.71	1.59	1.84	1.99	1.63	1.26	0.59	0.52	0.63	0.77	0.89	1.00	0.94	0.86	0.95	0.87	1.09	1.35	1.98	3.28	4.38	3.92	2.85	2.44	2.19	1.41	1.15	1.11	1.13	1.08	1.01	1.56	1.47	1.42	1.11	0.86	1.01	1.13	1.25	1.39	1.32	1.10	0.44	0.98	0.81	0.70	0.59	0.48	0.23	0.25	0.44	0.62	0.95	1.36	1.81	2.07	2.11	2.02	3.02	2.79	3.46	3.86	4.53	4.95	4.09	3.22	2.95	2.77	2.53	2.41	2.11	1.87	1.87
0.04	0.02	0.05	0.08	0.12	0.18	0.21	0.24	0.25	0.26	0.28	0.29	0.31	0.33	0.36	0.37	0.39	0.40	0.44	0.50	0.09	0.47	0.49	0.52	0.48	0.44	0.34	0.31	0.23	0.30	0.33	0.25	0.42	0.50	0.46	0.40	0.41	0.55	0.72	0.85	0.98	0.99	0.98	1.01	1.04	1.04	1.12	1.21	1.30	1.36	1.48	1.51	1.54	1.60	1.69	1.80	1.93	2.11	2.33	2.46	3.01	3.83	4.30	4.27	4.19	4.59	3.91	3.01	2.17	1.29	0.92	0.84	1.67	1.20	1.46	1.61	1.78	1.91	1.83	2.43	2.09	1.87	1.64	1.35	1.13	1.88	2.36	2.09	1.64	1.31	0.70	0.56	0.48	0.59	0.87	1.14	1.11	0.95	1.07	1.43	0.82	1.09	1.43	2.66	4.41	4.63	2.90	2.42	2.23	1.40	1.18	1.16	1.17	1.07	0.97	1.53	1.51	1.53	1.22	0.84	0.90	1.04	1.27	1.50	1.48	1.14	0.85	0.60	0.41	0.25	0.18	0.12	0.32	0.40	0.25	0.28	0.48	0.79	1.13	1.57	1.94	2.01	2.11	2.77	3.56	3.86	4.57	5.20	4.28	3.22	3.10	2.81	2.62	2.50	2.22	2.00	2.00
0.02	0.01	0.04	0.08	0.16	0.19	0.22	0.25	0.26	0.27	0.29	0.30	0.31	0.33	0.36	0.38	0.41	0.41	0.61	0.06	0.40	0.42	0.32	0.30	0.34	0.32	0.32	0.29	0.21	0.25	0.27	0.33	0.51	0.55	0.50	0.44	0.42	0.50	0.61	0.78	0.92	0.95	0.94	0.96	1.00	1.08	1.12	1.19	1.29	1.48	1.51	1.54	1.56	1.60	1.71	1.83	1.93	2.08	2.25	2.46	2.76	3.16	3.46	3.58	3.78	4.48	5.37	4.45	3.06	2.65	1.29	1.31	1.23	1.35	1.57	2.06	0.97	1.84	1.61	2.13	2.42	1.95	1.56	1.29	2.31	1.84	2.51	2.35	1.69	1.33	1.27	0.64	0.49	0.40	0.14	1.08	1.23	1.14	1.28	1.39	1.51	0.95	1.09	2.06	4.35	4.42	3.19	2.42	2.25	1.41	1.29	1.25	1.18	1.01	1.52	1.55	1.61	1.60	1.45	0.88	0.86	0.96	1.23	1.52	1.56	1.21	0.82	0.73	0.59	0.29	0.36	0.44	0.52	0.53	0.40	0.27	0.44	0.59	0.81	1.19	1.76	2.16	2.31	2.86	3.66	3.97	4.69	5.40	4.40	3.27	3.08	2.82	2.68	2.59	2.35	2.14	2.14
0.01	0.02	0.05	0.09	0.17	0.20	0.23	0.26	0.27	0.28	0.30	0.31	0.32	0.33	0.36	0.39	0.41	0.43	0.43	0.69	0.45	0.39	0.30	0.21	0.22	0.24	0.23	0.28	0.24	0.17	0.15	0.39	0.53	0.52	0.49	0.45	0.47	0.52	0.66	0.82	0.91	0.92	0.93	0.97	1.05	1.32	1.34	1.38	1.44	1.49	1.53	1.55	1.57	1.63	1.73	1.78	1.91	2.06	2.24	2.46	2.71	2.94	3.13	3.22	3.39	3.77	4.52	5.72	5.29	3.47	2.61	1.59	1.36	1.55	1.93	1.84	1.35	1.37	1.51	1.97	2.48	1.88	1.51	1.70	1.52	1.76	2.51	2.43	1.87	1.44	1.43	1.19	0.49	0.39	0.42	0.77	1.11	1.29	1.49	1.61	1.31	0.94	1.01	1.71	4.00	4.78	3.60	2.47	2.29	1.48	1.42	1.34	1.14	0.92	1.49	1.09	1.64	1.54	1.11	1.02	0.93	0.91	1.12	1.42	1.51	1.32	1.05	1.11	0.80	0.31	0.42	0.21	0.30	0.50	0.57	0.57	0.66	0.85	1.05	1.40	2.00	2.47	2.60	3.05	3.71	4.04	4.82	5.54	4.41	3.38	3.10	2.87	2.73	2.66	2.48	2.31	2.31
0.01	0.03	0.06	0.10	0.40	0.21	0.24	0.26	0.28	0.29	0.31	0.32	0.32	0.34	0.36	0.39	0.41	0.43	0.45	0.45	0.48	0.36	0.36	0.23	0.20	0.23	0.13	0.19	0.20	0.16	0.15	0.24	0.32	0.43	0.47	0.44	0.44	0.51	0.65	0.77	0.84	0.89	0.93	0.96	1.29	1.35	1.40	1.42	1.46	1.49	1.50	1.52	1.56	1.63	1.73	1.77	1.86	1.34	1.65	2.39	2.64	2.85	3.05	3.21	3.30	3.39	3.91	5.47	5.82	5.33	4.12	3.08	2.01	2.16	2.71	1.68	1.49	1.68	1.88	2.28	2.06	1.72	2.50	1.88	1.73	1.93	2.63	2.01	2.18	1.75	1.60	1.40	1.03	0.45	0.45	0.58	0.88	1.22	1.53	1.83	1.47	1.66	1.10	1.58	3.70	4.93	4.05	2.62	2.41	1.64	1.54	1.38	1.08	0.87	0.97	1.18	1.23	1.16	1.23	1.23	1.54	0.84	0.95	1.27	1.37	1.35	1.21	1.15	1.09	0.88	0.58	0.44	0.22	0.29	0.47	0.58	0.72	0.90	1.17	1.52	2.05	2.65	2.92	3.32	3.84	4.16	4.99	5.68	4.37	2.99	3.31	3.01	2.83	2.72	2.58	2.47	2.47
0.02	0.05	0.07	0.13	0.45	0.22	0.25	0.27	0.28	0.30	0.33	0.33	0.60	0.34	0.37	0.41	0.42	0.43	0.45	0.48	0.50	0.52	0.59	0.22	0.25	0.23	0.19	0.13	0.11	0.22	0.24	0.24	0.23	0.38	0.51	0.49	0.47	0.50	0.59	0.69	0.78	0.84	1.16	0.92	1.29	1.37	1.44	1.48	1.50	1.51	1.50	1.52	1.56	1.62	1.72	1.72	1.07	1.24	2.08	2.28	2.51	2.74	2.94	3.15	3.30	3.38	3.72	4.64	6.14	5.91	5.65	4.97	4.00	3.67	3.83	2.64	2.37	2.67	2.98	2.57	2.87	2.76	2.62	2.00	2.05	2.53	2.27	1.97	2.46	2.04	1.77	1.61	1.32	0.50	0.47	0.66	0.90	1.17	1.39	1.70	1.48	1.38	1.32	1.72	3.61	5.52	4.40	2.93	2.60	1.80	1.61	1.40	1.10	0.95	1.10	1.29	1.30	1.21	1.28	1.35	1.04	0.80	0.37	0.18	1.23	0.40	0.62	1.38	1.27	0.95	0.75	0.51	0.46	0.47	0.55	0.36	0.33	0.61	1.04	1.44	1.87	2.46	2.85	3.45	3.93	4.20	5.13	5.91	4.43	3.46	3.42	3.18	2.96	2.79	2.66	2.58	2.58
0.04	0.06	0.09	0.15	0.49	0.24	0.27	0.29	0.30	0.31	0.34	0.35	0.35	0.30	0.39	0.43	0.44	0.43	0.38	0.43	0.54	0.55	0.80	0.31	0.32	0.33	0.29	0.23	0.18	0.20	0.20	0.30	0.29	0.39	0.55	0.60	0.52	0.50	0.58	0.68	0.75	0.80	0.82	0.82	1.27	1.36	1.46	1.52	1.54	1.55	1.55	1.56	1.59	1.64	1.42	1.58	0.87	1.06	2.01	2.18	2.40	2.62	2.84	3.04	3.27	3.45	3.68	4.23	5.24	5.64	5.84	5.64	5.34	4.90	4.76	4.44	3.88	3.26	3.73	3.91	4.03	2.81	2.66	2.33	2.46	2.87	2.18	1.86	2.27	2.28	2.16	1.91	1.53	0.82	0.58	0.74	1.02	1.17	1.23	1.38	1.36	1.46	1.57	2.13	3.81	5.31	4.51	3.36	2.85	1.96	1.69	1.49	1.28	1.23	1.33	1.39	1.34	1.27	1.30	1.35	1.15	0.82	0.84	0.30	0.42	0.28	0.52	0.80	0.84	1.08	0.55	0.44	0.48	0.53	0.51	0.41	0.36	0.45	0.84	1.14	1.45	2.01	2.57	3.24	3.89	4.16	5.28	6.24	4.42	3.28	3.33	3.30	3.14	2.91	2.76	2.67	2.67
0.07	0.08	0.13	0.47	0.51	0.25	0.29	0.31	0.31	0.32	0.34	0.36	0.52	0.33	0.43	0.71	0.71	0.46	0.36	0.40	0.54	0.58	0.60	0.61	0.65	0.38	0.37	0.31	0.19	0.11	0.32	0.38	0.33	0.35	0.47	0.53	0.56	0.54	0.58	0.62	0.68	0.73	0.71	1.20	0.49	1.37	1.46	1.54	1.59	1.60	1.61	1.64	1.67	1.74	1.23	0.45	0.59	0.81	1.92	2.09	2.31	2.56	2.41	3.05	3.27	3.52	3.81	4.49	4.96	5.00	5.09	5.11	5.07	5.10	5.15	4.96	4.64	4.17	4.21	4.87	4.93	4.28	4.33	3.67	3.47	3.21	2.33	2.00	2.43	2.45	2.59	2.66	1.89	1.48	1.29	1.31	1.21	1.15	1.07	1.10	1.19	1.44	1.80	2.75	4.46	4.89	4.31	3.69	3.14	2.15	1.85	1.70	1.59	1.56	1.60	1.52	1.38	1.31	1.29	1.31	1.21	0.89	0.75	0.92	1.03	0.47	0.54	1.19	1.55	1.29	1.11	0.64	0.66	0.61	0.47	0.50	0.67	0.73	0.82	1.18	1.64	2.21	2.80	3.45	4.00	4.31	5.61	6.64	4.34	3.05	3.39	3.34	3.31	3.11	2.91	2.79	2.79
0.09	0.10	0.15	0.50	0.53	0.27	0.32	0.33	0.33	0.33	0.35	0.37	0.37	0.40	0.46	0.51	0.55	0.68	0.41	0.45	0.56	0.60	0.62	0.62	0.62	0.65	0.46	0.35	0.22	0.19	0.29	0.37	0.31	0.34	0.46	0.50	0.54	0.53	0.51	0.50	0.52	0.53	0.32	0.30	0.36	0.82	1.46	1.56	1.64	1.68	1.68	1.72	1.84	2.37	1.11	0.33	0.41	0.58	0.87	1.97	2.18	1.72	2.75	3.07	3.36	3.68	4.12	4.91	4.94	4.84	4.80	4.73	4.69	4.71	4.77	4.72	4.50	4.22	4.11	4.44	4.95	4.79	4.86	4.62	4.74	4.04	3.29	2.67	2.38	2.33	2.80	3.42	2.89	2.45	2.21	1.61	1.41	1.26	1.17	1.25	0.97	1.44	2.19	3.52	4.51	4.31	4.01	3.79	3.33	2.32	2.03	1.94	1.88	1.83	1.87	1.76	1.51	1.35	1.26	1.24	1.20	0.92	0.67	0.82	0.97	0.99	0.94	1.29	1.71	1.67	1.42	1.11	0.93	0.77	0.48	0.48	0.73	0.82	0.77	1.03	1.55	2.03	2.55	3.46	4.16	4.50	5.92	7.10	4.43	2.94	3.36	3.31	3.36	3.28	3.09	2.96	2.96
0.11	0.12	0.18	0.53	0.56	0.29	0.33	0.35	0.36	0.36	0.36	0.37	0.37	0.37	0.41	0.49	0.56	0.58	0.57	0.57	0.59	0.61	0.63	0.63	0.62	0.58	0.57	0.51	0.22	0.23	0.09	0.06	0.13	0.13	0.32	0.44	0.46	0.50	0.48	0.43	0.35	0.25	0.13	0.13	0.28	1.30	1.43	1.55	1.68	1.75	1.74	1.79	2.37	2.53	0.46	0.23	0.35	0.55	0.80	1.85	1.25	1.57	2.54	2.87	3.28	3.76	4.50	5.12	5.01	4.81	4.69	4.57	4.50	4.49	4.53	4.55	4.45	4.27	4.06	3.40	3.54	3.91	4.21	4.39	5.36	4.73	5.45	4.79	3.35	2.71	3.25	4.32	4.50	3.72	2.98	2.03	1.35	1.16	1.40	1.36	1.57	1.59	2.78	4.11	3.24	3.82	3.78	3.77	3.42	2.44	2.24	2.19	2.10	2.07	2.17	2.07	1.70	1.41	1.24	1.14	1.11	0.92	0.63	0.69	0.94	1.06	1.21	1.45	2.08	2.08	2.03	1.36	0.72	0.93	0.68	0.47	0.65	0.71	0.62	0.74	1.35	1.86	2.16	2.99	4.08	4.57	6.06	7.43	4.82	3.07	3.38	3.29	3.35	3.36	3.27	3.18	3.18
0.13	0.17	0.20	0.23	0.27	0.30	0.33	0.36	0.38	0.38	0.37	0.37	0.36	0.34	0.29	0.33	0.49	0.57	0.59	0.60	0.61	0.63	0.64	0.63	0.62	0.56	0.47	0.30	0.42	0.36	0.36	0.34	0.38	0.32	0.29	0.38	0.44	0.51	0.47	0.36	0.41	0.40	0.37	0.11	0.27	1.12	1.27	1.42	1.61	1.78	1.79	1.88	2.62	2.56	2.25	0.76	0.38	0.51	0.62	1.01	1.16	2.27	2.42	2.62	3.02	3.64	4.84	5.18	5.05	4.87	4.73	4.56	4.42	4.36	4.39	4.45	4.44	4.32	4.01	3.10	3.07	3.42	3.81	4.20	5.19	5.75	5.62	5.71	5.42	4.38	4.22	4.62	5.12	5.82	4.69	2.68	1.56	1.09	0.48	1.54	1.74	2.01	3.51	4.05	3.67	3.53	3.61	3.71	3.48	3.03	2.89	2.93	2.80	2.33	2.52	2.37	1.87	1.49	1.26	1.07	0.98	0.86	0.60	0.54	0.79	1.56	1.34	1.53	2.12	2.42	2.63	1.85	0.93	0.38	0.83	0.62	0.63	0.74	0.41	0.75	1.54	1.89	1.99	2.80	3.91	4.40	5.80	7.67	5.96	3.70	3.55	3.29	3.29	3.31	3.38	3.43	3.43
0.16	0.20	0.22	0.25	0.28	0.30	0.34	0.37	0.39	0.40	0.39	0.39	0.38	0.36	0.30	0.28	0.39	0.53	0.58	0.62	0.64	0.66	0.67	0.66	0.63	0.58	0.41	0.25	0.35	0.65	0.45	0.45	0.58	0.49	0.43	0.31	0.39	0.43	0.36	0.20	0.53	0.37	0.52	0.18	0.07	0.89	1.01	1.15	1.40	1.73	1.90	2.13	2.71	2.52	2.29	1.72	0.20	0.29	0.38	0.71	0.95	1.27	2.34	2.49	2.79	3.46	4.54	5.17	5.02	4.83	4.75	4.63	4.47	4.36	4.36	4.41	4.42	4.32	3.96	2.91	2.63	2.95	3.48	4.13	5.04	5.17	5.16	5.11	5.31	5.03	4.18	3.69	3.96	5.74	7.17	5.81	2.59	1.58	0.83	1.83	1.48	2.57	4.04	3.52	3.41	3.39	3.52	3.64	3.48	3.08	2.95	3.06	3.04	3.12	3.32	3.05	1.99	1.56	1.29	1.02	0.85	0.73	0.54	0.47	0.56	0.88	1.35	2.01	2.22	2.53	3.06	2.47	1.42	0.83	0.82	0.65	0.69	0.76	0.34	0.68	1.19	1.36	1.61	2.32	3.73	4.29	5.19	7.72	7.85	5.14	3.97	3.28	3.15	3.13	3.33	3.55	3.55
0.19	0.22	0.24	0.26	0.30	0.33	0.36	0.38	0.40	0.42	0.42	0.43	0.43	0.43	0.41	0.40	0.45	0.51	0.57	0.62	0.65	0.69	0.71	0.69	0.67	0.62	0.37	0.48	0.43	0.40	0.29	0.27	0.28	0.26	0.40	0.39	0.33	0.30	0.18	0.40	0.38	0.64	0.62	0.23	0.05	0.69	0.19	0.98	1.19	1.55	1.91	2.85	2.75	2.16	1.63	1.11	0.10	0.20	0.21	0.40	0.64	1.54	2.07	2.36	2.61	3.23	4.24	5.05	4.90	4.68	4.65	4.61	4.50	4.18	4.34	4.21	4.21	4.09	3.74	3.10	2.28	2.34	2.93	3.83	4.75	4.65	4.12	4.01	3.98	3.85	3.52	3.14	2.72	3.40	5.85	8.72	6.50	2.74	1.45	1.41	1.75	3.01	4.36	3.51	2.97	3.28	3.45	3.57	3.42	3.10	3.00	3.14	3.26	3.45	3.58	3.22	2.56	1.99	1.24	0.97	0.79	0.62	0.49	1.00	0.58	0.52	1.05	1.66	1.81	2.28	3.39	3.25	2.31	1.16	0.77	0.82	0.67	0.54	0.69	1.30	1.64	1.16	0.87	1.78	2.37	3.84	5.02	7.07	9.67	7.37	4.94	3.40	2.92	2.83	3.09	3.41	3.41
0.22	0.24	0.26	0.29	0.32	0.34	0.36	0.39	0.41	0.43	0.45	0.45	0.46	0.47	0.47	0.46	0.47	0.52	0.57	0.62	0.66	0.71	0.74	0.73	0.71	0.67	0.40	0.40	0.37	0.35	0.31	0.35	0.47	0.39	0.38	0.51	0.43	0.25	0.14	0.44	0.50	0.57	0.33	0.27	0.18	0.09	0.68	0.84	1.00	1.28	1.74	2.90	2.62	1.87	1.02	0.42	0.41	0.40	0.27	0.52	0.49	1.16	1.67	2.17	2.49	3.05	4.05	4.89	4.71	4.52	4.48	4.36	4.33	4.21	4.17	4.26	4.32	4.19	3.87	3.28	2.30	1.98	2.44	3.47	4.49	4.07	3.50	3.13	3.00	3.03	3.01	2.89	2.36	2.54	3.34	6.67	9.58	6.84	2.28	1.63	1.85	3.16	4.61	3.69	2.89	2.98	3.39	3.54	3.40	3.09	3.02	3.23	3.54	3.78	3.74	3.33	2.74	2.10	1.16	0.90	0.81	0.66	0.49	0.40	0.31	0.30	0.68	1.33	1.90	2.57	3.39	3.87	3.40	2.07	1.16	0.98	0.83	0.07	0.86	1.51	1.67	1.35	0.99	1.36	1.75	3.14	4.41	5.94	8.64	9.63	6.42	3.99	2.87	2.61	2.81	3.03	3.03
0.24	0.26	0.28	0.30	0.31	0.33	0.37	0.39	0.41	0.42	0.44	0.46	0.47	0.48	0.48	0.49	0.50	0.53	0.57	0.62	0.67	0.73	0.76	0.75	0.74	0.61	0.47	0.49	0.49	0.44	0.46	0.47	0.48	0.39	0.56	0.36	0.38	0.22	0.32	0.26	0.26	0.26	0.36	0.24	0.23	0.22	0.54	0.76	0.89	1.13	1.61	2.69	2.59	1.89	1.01	0.63	0.63	0.38	0.45	0.52	0.51	1.01	1.66	1.95	2.38	3.02	4.14	4.68	4.35	3.88	4.22	3.99	3.99	3.84	3.75	3.89	4.10	4.07	3.80	3.35	2.65	2.02	2.29	3.28	4.22	3.80	3.05	2.60	1.94	1.99	2.10	2.12	1.99	1.98	2.37	4.14	9.25	10.10	4.32	1.82	1.69	2.97	4.67	3.90	3.16	3.32	3.18	3.49	3.41	3.11	3.25	3.21	3.86	4.01	3.64	3.35	2.86	2.19	1.15	0.89	0.84	0.71	0.51	0.35	0.29	0.22	0.39	0.93	1.52	2.16	3.02	3.96	4.30	3.55	2.36	1.77	1.72	1.99	1.85	1.07	1.36	1.35	1.33	1.47	2.21	2.56	3.40	4.88	7.01	9.85	8.72	6.01	3.55	2.75	2.58	2.58	2.58
0.27	0.28	0.28	0.28	0.31	0.35	0.38	0.39	0.40	0.40	0.42	0.44	0.45	0.47	0.48	0.50	0.51	0.53	0.56	0.59	0.64	0.71	0.76	0.76	0.76	0.72	0.50	0.55	0.58	0.56	0.76	0.70	0.47	0.36	0.45	0.34	0.20	0.27	0.34	0.32	0.31	0.35	0.21	0.14	0.18	0.18	0.52	0.76	0.87	1.09	1.59	2.30	2.26	1.91	1.51	0.71	0.65	0.35	0.44	0.51	0.52	1.03	1.62	1.80	2.26	3.10	4.26	4.39	3.82	3.57	3.68	3.94	3.99	3.83	3.69	3.70	4.08	4.18	3.97	3.66	3.15	2.61	2.51	3.28	4.09	3.63	2.70	1.81	1.68	1.62	1.67	1.69	1.00	0.93	1.75	2.75	6.48	9.87	8.38	4.19	1.88	2.66	4.53	4.27	3.80	3.65	3.41	3.25	3.25	2.94	2.63	3.39	3.96	3.63	3.58	3.27	2.85	2.31	1.31	0.98	0.84	0.72	0.57	0.90	0.88	0.90	0.27	0.57	1.08	1.67	2.47	3.48	4.49	4.83	4.18	3.17	2.69	2.64	2.47	2.30	1.02	1.47	1.50	1.43	1.68	2.30	2.85	4.09	5.88	7.68	9.48	7.97	6.07	4.02	2.84	2.38	2.38
0.28	0.28	0.26	0.28	0.31	0.34	0.36	0.36	0.37	0.38	0.38	0.40	0.42	0.44	0.46	0.47	0.48	0.49	0.51	0.53	0.52	0.67	0.74	0.76	0.77	0.50	0.51	0.57	0.62	0.67	0.90	0.83	0.44	0.40	0.36	0.29	0.13	0.18	0.23	0.25	0.32	0.26	0.11	0.48	0.53	0.77	0.79	0.86	0.95	1.11	1.54	2.08	2.10	1.86	1.54	0.69	0.76	0.52	0.59	0.46	0.65	1.54	1.20	1.75	2.22	3.26	4.27	3.84	3.32	3.07	3.39	3.84	4.00	3.84	3.55	3.62	3.94	4.16	4.00	3.76	3.76	3.43	3.15	3.42	4.03	3.57	2.05	1.62	1.53	1.45	1.46	0.91	0.68	0.50	1.44	1.96	3.70	7.21	8.66	7.25	3.75	3.27	4.29	4.58	4.73	4.48	4.02	3.64	3.48	3.02	2.66	3.72	4.09	3.43	3.44	3.15	2.85	2.51	2.00	1.05	0.74	0.67	0.63	0.26	0.95	0.98	0.92	0.63	0.67	1.16	1.80	2.63	3.68	4.79	5.36	5.28	4.58	3.56	2.89	2.51	2.23	1.41	1.77	1.78	1.64	1.75	2.56	3.70	5.32	6.41	7.59	8.66	8.08	6.82	4.79	3.47	3.47
0.28	0.26	0.24	0.26	0.28	0.28	0.24	0.27	0.33	0.35	0.35	0.32	0.34	0.40	0.42	0.43	0.36	0.35	0.36	0.41	0.50	0.66	0.72	0.77	0.54	0.51	0.50	0.56	0.61	0.73	0.95	0.89	0.52	0.53	0.57	0.34	0.14	0.10	0.19	0.25	0.22	0.15	0.49	0.80	0.88	0.97	1.00	0.99	1.07	1.28	1.53	1.91	1.99	1.76	1.45	0.90	0.90	0.75	0.70	0.43	1.19	1.49	1.61	1.72	2.25	3.47	4.19	3.60	2.87	2.60	2.68	3.27	3.83	3.90	3.62	3.66	4.00	4.06	3.86	3.78	4.15	4.00	3.61	3.62	3.93	3.60	2.17	1.63	1.51	1.33	1.27	0.82	0.63	0.23	0.24	1.49	2.04	4.17	7.30	7.21	4.54	3.42	4.04	4.79	5.19	5.18	4.96	4.52	4.13	3.45	3.02	4.01	3.86	3.07	3.23	2.93	2.95	2.72	2.23	1.09	0.60	0.57	0.64	0.62	1.11	1.10	1.03	0.98	0.64	0.69	1.21	1.86	2.61	3.55	4.72	5.94	6.67	6.04	3.65	2.73	2.31	2.12	1.80	2.15	1.87	1.56	2.45	3.67	5.09	6.05	6.06	6.34	7.33	7.96	6.69	5.88	5.88
0.25	0.23	0.22	0.21	0.21	0.17	0.19	0.23	0.26	0.31	0.33	0.31	0.36	0.39	0.36	0.35	0.34	0.32	0.33	0.39	0.60	0.67	0.72	0.54	0.57	0.57	0.57	0.58	0.59	0.72	0.96	0.94	0.62	0.60	0.36	0.12	0.09	0.03	0.14	0.19	0.30	0.48	0.77	0.82	0.96	1.15	1.25	1.43	1.64	1.65	1.73	1.92	1.99	1.77	0.92	1.05	1.09	0.93	0.71	0.76	1.07	1.44	1.55	1.62	2.25	3.66	4.26	3.52	2.68	1.89	2.18	2.88	3.63	3.94	3.76	3.77	4.02	3.97	3.67	3.74	4.32	4.38	3.95	3.69	3.76	3.12	2.43	1.86	1.63	1.45	1.02	0.86	0.59	0.14	0.23	0.42	1.10	2.52	5.91	8.13	6.92	5.35	4.78	4.49	4.64	5.32	5.09	5.24	5.14	5.01	4.40	4.24	3.64	2.80	2.42	2.97	3.05	2.83	2.39	1.69	0.61	0.47	0.54	0.59	0.55	1.23	1.37	1.22	1.06	0.62	0.16	0.72	1.63	2.59	3.16	4.42	6.75	7.76	6.08	3.19	2.44	2.21	2.10	1.62	1.62	1.85	2.48	3.73	4.86	5.55	5.31	4.99	5.15	5.88	7.42	8.11	8.11
0.17	0.15	0.13	0.13	0.14	0.16	0.19	0.22	0.24	0.26	0.33	0.36	0.39	0.40	0.36	0.35	0.34	0.34	0.36	0.43	0.64	0.71	0.76	1.13	0.60	0.65	0.68	0.66	0.65	0.78	0.98	1.01	0.96	0.92	0.04	0.06	0.05	0.39	0.44	0.42	0.67	0.73	0.78	0.82	0.96	1.21	1.55	1.94	1.94	1.93	1.94	2.05	2.09	1.89	1.05	1.08	1.02	0.95	0.51	0.72	0.20	1.41	1.55	1.51	2.27	3.72	4.22	3.49	2.65	1.78	1.94	2.63	3.35	3.74	3.82	3.86	4.01	3.90	3.64	3.75	4.35	4.57	4.19	3.72	3.56	3.03	2.62	2.14	1.86	1.68	0.84	0.77	0.47	0.29	0.34	0.30	1.01	1.53	4.15	7.07	7.73	6.41	5.24	4.52	4.38	4.63	4.97	5.40	5.54	5.75	5.57	4.61	3.45	2.77	2.42	3.11	3.01	2.93	2.56	1.94	0.79	0.44	0.38	0.40	0.99	0.65	0.31	0.69	1.31	1.37	0.56	0.36	0.57	1.98	2.43	3.04	4.88	7.73	8.12	5.43	3.33	2.23	1.98	1.83	1.71	1.89	2.63	3.62	4.45	4.92	4.84	4.57	4.62	5.15	6.95	8.77	8.77
0.22	0.20	0.16	0.17	0.18	0.19	0.22	0.25	0.25	0.26	0.32	0.36	0.35	0.36	0.37	0.38	0.39	0.41	0.45	0.61	0.69	0.77	0.60	0.63	0.65	0.72	0.77	0.77	0.90	1.00	1.03	1.10	1.10	1.05	1.00	0.08	0.14	0.49	0.79	0.74	0.70	0.73	0.78	0.81	0.91	1.18	1.81	1.96	2.03	2.06	2.06	2.13	2.19	2.05	1.72	0.90	1.01	0.58	0.64	0.82	1.09	1.35	1.34	1.46	2.28	3.58	4.06	3.43	2.73	2.04	1.93	2.41	3.01	3.51	3.79	3.89	3.88	3.75	3.67	3.81	4.25	4.65	4.32	3.29	2.96	2.90	2.68	2.33	2.12	1.93	1.64	1.23	1.08	0.59	0.31	0.16	1.01	1.60	2.91	5.22	7.24	7.27	5.74	4.63	4.31	4.33	4.37	4.40	4.58	5.26	6.69	5.51	3.80	2.96	2.65	2.50	3.17	3.13	2.81	2.17	0.98	0.51	0.30	0.26	1.09	0.61	0.51	0.36	0.50	0.96	1.35	0.92	0.19	0.72	2.18	2.58	3.49	6.22	7.93	7.31	5.49	4.01	2.86	2.16	1.59	1.86	2.61	3.41	4.16	4.39	4.50	4.40	4.44	4.89	6.87	8.92	8.92
0.29	0.27	0.23	0.24	0.25	0.25	0.26	0.29	0.28	0.27	0.28	0.30	0.32	0.35	0.40	0.45	0.48	0.51	0.59	0.73	0.76	0.81	1.15	0.70	0.73	0.78	0.84	0.86	1.11	1.10	1.10	1.16	1.19	1.16	1.09	1.00	0.68	0.72	0.77	0.76	0.70	0.69	0.72	0.73	0.84	1.18	1.55	1.71	1.77	2.00	2.00	1.99	2.06	2.04	0.77	0.65	0.35	0.64	0.68	0.93	1.09	0.92	1.17	1.40	2.18	3.25	3.71	3.19	2.71	2.23	1.94	2.20	2.73	3.25	3.64	3.84	3.79	3.64	3.61	3.74	4.13	4.59	4.30	3.11	2.57	1.81	1.82	2.39	2.31	2.13	1.81	1.37	1.00	0.87	0.76	0.21	0.44	1.59	2.22	3.35	5.80	7.20	6.17	4.72	4.28	4.17	4.09	3.78	3.57	4.03	6.18	6.26	4.76	3.28	2.84	2.73	3.39	3.36	3.05	1.84	1.08	0.59	0.33	0.32	0.45	0.58	0.66	0.48	0.26	0.86	0.47	0.30	0.53	0.46	1.86	2.32	2.86	4.64	6.80	7.27	6.40	5.42	4.47	3.60	2.75	2.38	2.72	3.48	3.81	4.07	4.27	4.29	4.33	4.68	6.62	8.72	8.72
0.33	0.31	0.28	0.29	0.31	0.31	0.31	0.33	0.33	0.32	0.30	0.31	0.34	0.38	0.43	0.50	0.55	0.60	0.81	0.82	0.83	0.90	0.69	0.77	0.83	0.88	0.92	0.95	1.18	1.19	1.19	1.22	1.27	1.28	1.23	1.12	1.07	0.85	0.84	0.77	0.70	0.66	0.68	0.73	0.81	0.95	1.12	1.32	1.60	1.96	1.48	1.37	1.40	0.64	1.28	1.08	0.90	0.82	0.84	1.02	1.04	0.92	0.99	1.35	2.07	2.96	3.29	2.91	2.18	2.10	2.12	2.31	2.73	3.22	3.59	3.84	3.84	3.65	3.52	3.61	4.01	4.42	4.17	3.01	2.52	1.32	2.40	2.44	2.48	2.38	2.07	1.64	1.24	1.03	0.96	0.98	0.36	0.89	1.77	2.29	4.25	6.59	6.65	5.00	4.35	4.16	3.99	3.55	3.19	3.37	5.20	6.64	5.83	3.91	3.08	3.66	3.60	3.62	3.29	2.03	1.26	0.77	0.49	0.42	0.52	0.66	0.73	0.72	0.67	0.16	0.33	0.19	0.80	1.71	2.01	2.33	2.86	4.06	5.77	6.82	6.02	5.42	5.06	4.51	3.83	3.24	3.20	3.39	3.60	3.90	4.10	4.22	4.43	4.68	6.43	8.38	8.38
0.34	0.33	0.32	0.33	0.35	0.37	0.37	0.39	0.39	0.39	0.38	0.38	0.40	0.43	0.45	0.50	0.56	0.66	0.85	0.87	0.88	0.68	0.72	0.80	0.88	0.96	1.02	1.03	1.23	1.24	1.25	1.27	1.32	1.39	1.39	1.30	0.78	0.72	0.87	0.85	0.67	0.71	0.72	0.70	0.72	0.87	1.03	1.16	1.38	1.53	1.36	1.23	1.21	1.28	1.21	1.06	1.05	1.02	1.01	1.05	0.94	0.77	0.87	1.32	1.99	2.84	2.89	2.19	2.07	2.07	2.20	2.51	2.91	3.34	3.68	3.92	4.05	3.92	3.57	3.54	3.92	4.13	3.93	3.42	2.79	2.39	2.31	1.50	1.79	2.55	2.35	1.98	1.64	1.40	1.27	1.19	0.47	1.31	1.47	1.80	3.16	5.83	6.87	5.51	4.58	4.24	4.01	3.59	3.06	3.08	4.44	6.97	6.30	4.43	3.36	3.40	3.72	3.79	3.58	2.90	1.67	1.10	1.80	0.92	0.60	0.78	0.90	0.82	0.68	0.03	0.24	0.39	0.97	1.71	2.10	2.53	3.11	4.07	5.24	5.91	5.38	5.03	4.96	4.87	4.31	3.80	3.43	3.34	3.64	3.76	3.92	4.13	4.25	4.76	6.33	7.86	7.86
0.33	0.32	0.34	0.36	0.37	0.41	0.42	0.43	0.44	0.45	0.46	0.47	0.47	0.48	0.49	0.51	0.55	0.67	0.83	0.87	0.90	0.72	0.74	0.80	0.90	1.03	1.13	1.14	1.14	1.30	1.30	1.30	1.33	1.45	1.51	1.46	0.95	1.02	0.81	0.93	0.88	0.66	0.84	0.79	0.76	0.87	1.04	1.15	0.26	0.43	1.37	1.39	1.38	1.41	1.33	1.16	1.16	1.26	1.22	1.11	0.93	0.82	0.95	1.36	2.01	2.60	2.09	1.94	1.92	1.93	2.10	2.53	3.06	3.51	3.83	4.03	4.33	4.25	3.80	3.61	3.72	3.78	3.59	3.29	2.88	2.35	2.17	2.31	2.53	2.71	2.73	2.09	1.05	0.91	1.56	1.45	1.39	1.35	1.36	1.54	2.50	4.76	6.57	6.01	4.94	4.40	4.09	3.63	3.00	2.90	3.96	6.53	6.39	4.92	3.73	3.83	3.86	3.75	3.72	3.36	2.72	2.10	1.25	0.89	0.79	0.96	1.10	0.99	0.78	0.69	0.33	0.80	1.13	1.69	2.31	2.88	3.36	4.04	4.92	5.04	4.83	4.70	4.70	4.73	4.52	4.10	3.72	3.49	3.74	3.79	3.95	3.90	4.14	4.77	6.25	7.58	7.58
0.29	0.31	0.35	0.38	0.39	0.43	0.46	0.45	0.47	0.49	0.53	0.55	0.55	0.54	0.55	0.56	0.59	0.68	0.82	0.86	0.89	0.71	0.76	0.82	0.90	1.03	1.18	1.28	1.24	1.44	1.37	1.33	1.12	1.27	1.57	1.57	1.48	0.97	1.05	0.92	0.94	0.80	0.63	0.41	0.35	0.41	0.38	0.95	1.09	1.25	1.43	1.39	1.41	1.49	1.51	1.40	1.33	1.39	1.36	1.21	1.01	0.93	1.10	1.43	1.75	1.90	1.83	1.73	1.74	1.76	1.91	2.36	3.02	3.62	4.01	4.22	4.56	4.52	4.01	3.59	3.50	3.45	3.25	3.02	2.75	2.35	2.12	2.13	2.30	2.44	2.04	1.93	0.67	1.08	1.79	0.87	1.51	1.45	1.38	1.38	1.94	3.59	5.53	6.20	5.30	4.59	4.17	3.67	2.96	2.75	3.61	5.67	6.16	5.38	4.34	3.86	3.85	3.80	3.65	3.53	3.15	2.51	1.91	1.53	1.29	1.46	1.66	1.26	0.93	0.72	0.70	0.69	1.00	1.69	2.54	3.21	3.81	4.03	4.25	4.38	4.45	4.53	4.60	4.63	4.50	4.18	3.88	3.63	3.52	3.63	3.78	3.87	4.08	4.69	6.09	7.25	7.25
0.25	0.28	0.34	0.39	0.41	0.45	0.48	0.47	0.48	0.52	0.57	0.61	0.61	0.62	0.63	0.64	0.66	0.73	0.87	0.90	0.88	0.66	0.71	0.78	0.84	0.92	1.07	1.25	1.37	1.50	1.52	1.40	1.08	1.19	1.59	1.65	1.62	1.16	1.07	1.12	1.01	1.01	0.93	0.83	0.84	0.86	1.09	1.24	1.35	1.36	1.36	1.34	1.28	1.28	1.51	1.63	1.64	1.58	1.49	1.32	1.11	0.99	1.16	1.48	1.64	1.69	1.65	1.57	1.56	1.57	1.68	2.06	2.75	3.52	4.15	4.49	4.74	4.65	4.14	3.60	3.34	3.18	2.92	2.68	2.41	2.22	2.06	2.00	2.14	2.29	1.77	0.34	1.79	1.96	2.02	1.84	1.61	1.53	1.45	1.31	1.51	2.56	4.46	5.94	5.53	4.76	4.22	3.62	2.91	2.65	3.34	5.09	5.85	5.51	4.91	4.60	4.30	4.27	3.82	3.95	3.61	2.85	2.56	2.31	2.15	2.26	2.28	1.98	1.55	0.64	0.48	0.52	0.88	1.70	2.65	3.59	3.77	3.82	3.96	4.10	4.26	4.44	4.58	4.53	4.32	4.13	3.92	3.71	3.58	3.60	3.80	3.91	4.11	4.60	5.86	6.99	6.99
0.24	0.27	0.32	0.38	0.41	0.46	0.49	0.49	0.50	0.52	0.56	0.61	0.64	0.67	0.71	0.74	0.76	0.82	0.93	0.97	0.95	0.69	1.02	0.71	0.75	0.81	0.92	1.09	1.31	1.72	1.69	1.35	1.18	1.24	1.59	1.65	1.65	1.26	1.21	1.29	1.18	1.12	1.11	1.09	1.14	1.13	1.31	1.56	1.46	1.39	1.36	1.35	1.37	1.31	1.30	1.52	1.73	1.72	1.60	1.44	1.24	0.44	0.22	1.45	1.55	1.57	1.55	1.45	1.38	1.35	0.71	1.67	2.29	3.20	4.21	4.82	4.92	4.68	4.18	3.65	3.29	2.98	2.25	2.09	1.47	1.34	1.49	1.47	1.60	0.89	1.59	1.51	1.62	1.88	2.12	1.44	1.05	1.60	1.65	1.27	1.25	1.89	3.51	5.22	5.50	4.80	4.15	3.39	2.75	2.53	3.20	4.79	5.71	5.92	5.29	4.86	4.91	4.90	5.09	4.77	4.48	3.95	3.80	3.68	3.64	3.66	3.23	2.51	1.92	1.35	0.41	0.34	0.79	1.72	2.79	3.44	3.46	3.52	3.63	3.77	3.93	4.14	4.40	4.49	4.31	4.10	3.92	3.73	3.53	3.59	3.81	3.97	4.17	4.53	5.69	6.82	6.82
0.23	0.25	0.30	0.36	0.41	0.46	0.51	0.53	0.55	0.58	0.61	0.64	0.68	0.73	0.79	0.85	0.89	0.94	1.02	1.05	1.06	1.02	0.76	1.21	0.75	0.80	0.88	0.98	1.16	1.45	1.68	1.37	1.25	1.29	1.56	1.60	1.62	1.28	1.27	1.38	1.31	1.27	1.25	1.28	1.28	1.31	1.52	1.73	1.60	1.47	1.43	1.44	1.49	1.43	1.28	1.36	0.57	1.69	1.60	1.50	0.86	1.24	0.47	1.40	1.46	1.48	1.50	1.39	1.25	0.17	0.59	0.84	1.84	2.71	4.10	5.16	5.27	4.72	4.18	3.78	3.38	2.54	2.10	1.78	1.57	1.66	1.70	1.85	1.84	1.63	1.47	1.44	1.16	0.85	1.22	1.17	1.19	1.52	1.42	1.22	1.14	1.56	2.96	4.59	5.37	4.76	4.02	3.17	2.57	2.44	3.10	4.52	5.00	4.65	4.54	4.69	5.07	5.84	5.19	5.03	4.82	4.77	4.32	4.25	4.17	4.44	4.13	3.63	2.64	1.98	1.41	0.62	0.84	1.78	2.90	3.14	3.44	3.43	3.43	3.54	3.75	4.01	4.31	4.46	4.30	4.08	3.89	3.72	3.51	3.58	3.80	3.95	4.16	4.51	5.63	6.75	6.75
0.21	0.21	0.26	0.31	0.37	0.44	0.50	0.55	0.60	0.68	0.71	0.70	0.73	0.78	0.83	0.87	0.95	1.01	1.03	1.14	1.16	1.16	1.12	0.87	1.18	0.88	0.89	0.97	1.10	1.27	1.39	1.42	1.35	1.38	1.55	1.55	1.57	1.27	1.30	1.44	1.40	1.36	1.34	1.39	1.45	1.55	1.79	1.94	1.82	1.64	1.56	1.53	1.59	1.64	1.51	1.44	1.60	1.68	1.64	1.61	1.58	1.50	0.66	1.46	1.45	1.42	1.44	1.36	1.20	0.35	0.80	0.85	0.99	2.06	3.35	5.08	5.57	4.98	4.18	3.89	3.55	3.04	2.08	1.67	2.00	1.88	1.89	2.08	2.17	1.81	1.56	1.54	1.64	1.35	1.45	1.25	1.07	1.43	1.28	1.12	1.00	1.27	2.59	4.36	5.05	4.81	4.04	3.11	2.53	2.46	3.05	4.09	4.31	4.59	4.51	4.35	4.54	5.10	5.53	4.89	5.23	4.55	4.25	4.03	4.20	4.22	4.90	4.63	3.77	2.90	2.33	1.77	1.44	2.20	2.75	3.16	3.32	3.37	3.36	3.42	3.60	3.85	4.13	4.29	4.23	4.07	3.88	3.70	3.50	3.53	3.71	3.85	4.12	4.51	5.62	6.75	6.75
0.21	0.20	0.24	0.29	0.34	0.41	0.48	0.56	0.64	0.75	0.79	0.82	0.82	0.87	0.89	0.84	0.87	0.96	1.04	1.22	1.27	1.27	1.05	0.99	1.14	1.00	0.90	0.96	1.10	1.22	1.34	1.46	1.47	1.49	1.59	1.48	1.44	1.16	1.37	1.27	1.39	1.36	1.31	1.33	1.42	1.60	1.85	2.07	2.00	1.82	1.68	1.57	1.59	1.71	1.72	1.65	0.87	0.77	0.93	1.07	1.04	1.74	1.68	1.63	1.56	1.46	1.41	0.32	0.12	0.55	0.86	0.81	0.80	1.54	2.31	4.35	5.60	5.34	4.36	3.88	3.62	3.23	2.24	1.73	2.11	1.98	2.03	2.20	2.21	1.99	1.79	1.61	1.78	2.16	2.29	1.91	1.54	1.31	1.15	0.57	0.41	0.94	2.05	4.01	4.92	4.87	4.28	3.44	2.77	2.67	3.22	3.61	3.85	4.11	4.06	3.80	3.85	4.26	4.79	4.78	4.82	4.45	4.03	3.87	3.95	4.32	4.42	4.88	4.57	3.89	3.31	2.79	2.43	2.59	2.93	3.13	3.26	3.36	3.39	3.43	3.56	3.78	3.99	4.09	4.07	4.01	3.88	3.69	3.44	3.40	3.55	3.74	4.11	4.50	5.60	6.77	6.77
0.19	0.18	0.20	0.25	0.30	0.36	0.43	0.52	0.62	0.72	0.81	0.86	0.89	0.91	0.92	0.92	0.85	0.89	0.99	1.20	1.29	1.14	1.11	1.08	1.24	1.16	1.07	1.06	1.13	1.22	1.31	1.45	1.54	1.50	1.65	1.41	1.26	1.00	1.13	1.18	1.20	1.22	1.32	1.26	1.30	1.48	1.76	2.08	2.14	2.03	1.91	1.75	1.67	1.73	1.81	1.14	0.92	1.78	1.76	1.78	1.80	1.80	1.77	1.73	1.65	1.54	0.35	0.26	0.34	0.93	0.96	0.77	0.69	0.77	1.71	3.34	5.05	5.73	4.76	3.88	3.72	3.38	2.89	1.93	1.50	1.29	1.32	1.46	2.17	2.13	1.95	1.70	1.88	2.41	2.53	2.54	1.58	1.19	1.06	0.90	0.98	0.76	1.27	3.19	4.64	5.04	4.76	4.12	3.37	3.06	3.06	3.12	3.37	3.76	3.74	3.43	3.38	3.61	4.10	4.55	4.06	3.81	3.77	3.87	3.90	4.09	4.38	4.31	4.39	4.36	3.89	3.45	2.76	2.76	3.11	3.20	3.29	3.37	3.44	3.50	3.61	3.77	3.91	3.92	3.87	3.89	3.86	3.69	3.39	3.27	3.38	3.63	4.08	4.49	5.56	6.76	6.76
0.18	0.16	0.17	0.23	0.27	0.33	0.39	0.45	0.54	0.63	0.75	0.80	0.83	0.83	0.99	0.83	0.83	0.83	0.86	0.94	1.03	1.04	1.11	1.29	1.11	1.08	1.23	1.25	1.31	1.38	1.39	1.52	1.66	1.71	1.82	1.59	1.31	0.99	1.08	1.14	1.16	1.36	1.36	1.30	1.25	1.33	1.55	1.98	2.16	2.19	2.17	2.08	1.96	1.91	1.63	1.23	1.89	0.91	0.79	1.78	1.79	1.78	1.80	1.80	1.72	0.56	0.56	0.73	1.13	1.17	1.04	0.78	0.68	0.66	1.38	2.45	4.03	5.03	4.94	4.84	4.52	4.06	3.46	2.75	1.66	1.32	1.25	2.13	2.07	2.08	2.12	2.00	1.92	2.54	2.81	1.84	1.53	1.08	1.04	0.86	0.70	0.46	0.49	2.12	3.78	4.85	5.17	4.81	4.21	3.23	1.76	2.82	3.17	3.63	3.68	3.37	3.19	3.23	3.48	4.15	3.91	3.69	3.63	3.84	3.82	3.90	4.08	4.31	4.36	4.01	3.78	3.48	3.29	3.35	3.28	3.28	3.34	3.41	3.46	3.53	3.64	3.77	3.86	3.82	3.73	3.74	3.74	3.59	3.24	3.04	3.16	3.45	3.99	4.41	5.56	6.75	6.75
0.15	0.12	0.14	0.23	0.31	0.38	0.44	0.49	0.54	0.62	0.71	0.79	0.80	0.83	1.00	1.06	1.08	1.03	0.82	0.84	1.11	1.06	1.10	1.15	1.19	1.21	1.23	1.28	1.37	1.48	1.60	1.74	1.89	1.98	2.02	2.01	1.62	1.18	1.18	1.18	1.16	1.32	1.18	1.20	1.24	1.32	1.52	1.26	2.00	2.10	2.12	1.41	1.44	1.53	1.42	2.06	2.01	1.90	1.79	1.75	1.76	1.75	1.78	0.67	0.83	0.89	0.95	1.12	1.22	1.24	1.09	0.86	0.71	0.62	1.25	1.96	3.14	4.03	4.80	4.57	4.78	5.22	4.89	3.82	2.01	1.29	1.14	1.20	1.95	2.12	2.32	2.31	2.09	2.52	2.83	2.16	1.02	1.00	1.11	0.95	0.75	0.91	0.62	1.30	2.53	3.81	4.72	5.11	4.78	2.45	2.54	2.52	3.10	3.57	3.74	3.51	3.16	2.95	3.02	3.78	4.25	3.82	3.87	3.84	3.76	3.75	3.86	4.08	4.25	4.16	3.93	3.73	3.73	3.57	3.43	3.37	3.40	3.45	3.49	3.56	3.66	3.76	3.82	3.80	3.72	3.69	3.64	3.47	3.07	2.84	2.90	3.16	3.72	4.24	5.49	6.72	6.72
0.14	0.06	0.09	0.21	0.31	0.41	0.50	0.56	0.62	0.67	0.74	0.81	0.85	0.89	0.91	0.93	0.94	0.95	0.96	0.99	1.06	1.11	1.16	1.23	1.31	1.36	1.38	1.43	1.51	1.62	1.73	1.85	1.98	2.09	2.25	2.36	2.09	1.82	1.42	1.36	1.37	1.40	1.44	1.48	1.51	1.53	1.61	1.34	1.89	1.96	1.98	1.93	1.95	1.09	2.19	2.20	2.14	2.00	1.85	1.77	1.75	1.70	0.54	0.86	1.19	1.36	1.37	1.25	1.17	1.05	0.90	0.75	0.70	1.12	1.30	1.81	2.65	3.35	3.93	4.21	4.64	5.17	5.64	5.38	3.15	1.54	1.08	1.12	1.73	2.00	2.55	2.66	2.38	2.56	2.86	2.11	1.46	1.11	1.25	1.15	0.90	0.69	0.66	0.86	1.58	2.46	3.50	4.72	3.95	2.79	2.58	2.75	3.08	3.43	3.69	3.68	3.35	2.92	2.77	3.27	4.05	4.20	4.00	3.83	3.74	3.66	3.70	3.89	4.08	4.13	4.07	4.00	3.92	3.78	3.63	3.52	3.46	3.48	3.55	3.62	3.68	3.76	3.82	3.86	3.84	3.81	3.73	3.51	3.08	2.69	2.73	2.94	3.43	3.91	5.26	6.57	6.57
0.11	0.03	0.09	0.18	0.30	0.42	0.52	0.61	0.69	0.76	0.82	0.87	0.91	0.96	0.98	0.99	1.03	1.08	1.13	1.16	1.20	1.25	1.31	1.38	1.44	1.49	1.54	1.58	1.61	1.64	1.67	1.73	1.84	2.02	2.25	2.37	2.68	2.47	2.20	1.97	1.60	1.66	1.73	1.79	1.81	1.78	1.74	1.78	1.84	1.89	1.46	1.78	1.70	0.80	1.95	2.08	2.14	2.10	2.00	1.92	1.80	0.69	0.97	1.35	1.95	1.88	1.65	1.33	1.10	1.00	0.81	0.74	1.03	1.20	1.45	1.80	2.33	3.11	3.24	2.83	3.16	3.69	4.50	5.33	5.11	3.39	2.04	1.53	1.57	2.13	2.82	2.96	2.64	2.57	2.71	2.18	1.42	1.38	1.56	1.47	1.15	0.86	0.61	0.47	1.29	1.87	2.88	4.24	3.63	3.07	3.10	3.06	3.07	3.31	3.58	3.78	3.62	3.13	2.81	2.91	3.74	4.04	3.89	3.73	3.68	3.62	3.61	3.74	3.91	4.00	4.02	4.04	4.05	3.97	3.86	3.73	3.57	3.55	3.64	3.70	3.75	3.81	3.87	3.93	3.95	3.95	3.87	3.64	3.17	2.71	2.64	2.77	3.15	3.50	4.84	6.18	6.18
0.11	0.09	0.12	0.20	0.32	0.45	0.58	0.69	0.78	0.86	0.92	0.98	1.04	1.10	1.15	1.20	1.26	1.32	1.37	1.42	1.46	1.51	1.55	1.58	1.60	1.62	1.63	1.63	1.61	1.58	1.57	1.57	1.63	1.77	2.00	2.31	2.46	2.92	2.92	2.85	2.47	2.50	2.51	2.45	2.37	2.27	2.18	2.14	2.15	2.17	2.17	2.09	1.96	1.90	1.93	1.63	1.62	1.46	2.10	1.46	1.67	1.89	1.80	1.84	1.94	1.97	1.87	1.56	1.25	1.07	1.00	0.93	1.00	1.32	1.58	1.75	2.19	2.61	2.70	2.25	2.40	2.70	3.20	4.14	4.98	5.03	4.45	3.56	3.01	3.05	3.41	3.51	3.30	3.18	3.28	3.21	2.90	2.83	2.69	2.35	1.85	1.36	1.03	1.11	1.42	1.71	2.59	3.73	3.22	3.70	3.82	3.81	3.65	3.63	3.66	3.77	3.73	3.32	2.85	2.60	3.22	3.71	3.72	3.67	3.66	3.66	3.65	3.73	3.84	3.93	4.00	4.06	4.11	4.12	4.11	4.04	3.85	3.73	3.74	3.77	3.80	3.85	3.89	3.95	3.99	4.03	3.99	3.82	3.37	2.85	2.67	2.67	2.89	3.06	4.05	5.14	5.14
0.18	0.15	0.14	0.24	0.35	0.46	0.62	0.75	0.83	0.90	0.97	1.04	1.12	1.19	1.27	1.35	1.41	1.46	1.50	1.55	1.61	1.65	1.67	1.69	1.69	1.68	1.65	1.60	1.57	1.53	1.49	1.48	1.50	1.59	1.76	2.05	2.50	2.86	3.27	3.46	3.54	3.56	3.47	3.31	3.11	2.80	2.67	2.79	2.82	2.82	2.84	2.86	2.75	2.61	2.49	2.48	2.57	2.65	2.65	2.61	2.55	2.40	1.94	1.77	1.84	1.93	1.94	1.71	1.33	1.11	1.04	1.02	1.24	1.52	1.67	1.85	2.14	2.28	2.38	2.42	2.50	2.65	2.80	3.26	4.05	5.08	5.70	5.48	4.34	3.80	3.90	4.09	4.15	4.47	4.90	5.10	5.08	4.66	4.03	3.53	2.88	1.84	1.35	1.71	1.94	1.94	2.42	2.66	3.46	4.59	4.48	4.56	4.28	4.00	3.78	3.75	3.75	3.42	2.88	2.52	2.94	3.48	3.64	3.68	3.69	3.69	3.69	3.74	3.82	3.90	3.98	4.04	4.09	4.14	4.21	4.21	4.02	3.83	3.78	3.78	3.80	3.83	3.88	3.93	4.00	4.05	4.05	3.91	3.53	3.15	2.91	2.80	2.90	2.97	3.56	4.40	4.40
